# .PCD v0.7 - Point Cloud Data file format
VERSION 0.7
FIELDS x y z
SIZE 4 4 4
TYPE F F F
COUNT 1 1 1
WIDTH 323
HEIGHT 1
VIEWPOINT 0 0 0 1 0 0 0
POINTS 323
DATA ascii
68.268997 -16.610001 0.47999999
67.789001 -16.700001 0.38999999
68.158997 -16.899 0.47999999
67.539001 -17.110001 0.47999999
67.899002 -17.299 0.56
68.25 -17.49 0.62
67.158997 -17.229 0.28
67.609001 -17.469 0.52999997
67.969002 -17.66 0.58999997
67.799004 -16.679001 0.41999999
68.028999 -16.809 0.5
67.268997 -16.950001 0.43000001
67.488998 -17.089001 0.50999999
67.709 -17.219 0.56
67.940002 -17.349001 0.58999997
68.158997 -17.479 0.62
67.018997 -17.419001 0.25999999
67.238998 -17.559 0.44999999
67.459 -17.688999 0.56
67.690002 -17.82 0.58999997
67.908997 -17.950001 0.63999999
68.079002 -16.479 0.25999999
67.338997 -16.759001 0.15000001
67.518997 -16.839001 0.44999999
68.119003 -17.07 0.56
67.039001 -17.370001 0.2
67.238998 -17.459 0.44999999
67.518997 -17.57 0.54000002
67.82 -17.688999 0.60000002
68.058998 -16.91 0.47999999
68.028999 -17.32 0.56
68.010002 -17.719 0.62
67.469002 -16.979 0.41999999
67.440002 -17.389 0.5
67.418999 -17.768999 0.52999997
67.268997 -16.82 -0.059999999
67.469002 -16.66 -0.029999999
67.209 -17.299 0.40000001
67.418999 -17.139 0.46000001
67.619003 -16.979 0.47999999
67.82 -16.82 0.46000001
68.018997 -16.66 0.43000001
68.219002 -16.5 0.31
67.478996 -17.599001 0.56999999
67.679001 -17.438999 0.56999999
67.879997 -17.280001 0.56
68.088997 -17.120001 0.56999999
67.778999 -17.91 0.63999999
67.978996 -17.75 0.63999999
68.179001 -17.589001 0.62
68.379997 -17.429001 0.62
67.75 -18.370001 0.63999999
68.219002 -16.629 0.25999999
68.119003 -16.41 0.20999999
68.168999 -16.530001 0.090000004
68.088997 -16.549 0.38999999
68.109001 -16.58 0.28
68.079002 -16.530001 0.2
68.018997 -16.379 0.12
68.028999 -16.419001 0.029999999
68.408997 -17.450001 0.62
68.139 -16.839001 0.52999997
68.098999 -16.768999 0.44999999
68.010002 -16.559 0.38999999
67.948997 -16.438999 0.31
67.969002 -16.469 0.20999999
67.948997 -16.429001 0.12
67.940002 -16.419001 0.029999999
67.969002 -16.479 -0.079999998
68.348999 -17.518999 0.60000002
68.219002 -17.24 0.56
68.129997 -17.040001 0.5
67.969002 -16.669001 0.46000001
67.948997 -16.639 0.37
67.869003 -16.459 0.31
67.869003 -16.459 0.20999999
67.869003 -16.450001 0.11
67.879997 -16.479 0.0099999998
67.929001 -16.610001 -0.1
68.260002 -17.518999 0.62
68.109001 -17.200001 0.56
68.028999 -17.009001 0.5
67.838997 -16.610001 0.38999999
67.829002 -16.57 0.28999999
67.829002 -16.589001 0.2
67.808998 -16.530001 0.1
67.799004 -16.518999 0.0099999998
67.859001 -16.649 -0.1
68.190002 -17.58 0.62
68.028999 -17.229 0.56999999
67.848999 -16.83 0.44999999
67.760002 -16.639 0.38999999
67.719002 -16.549 0.31
67.760002 -16.629 0.2
67.719002 -16.549 0.11
67.719002 -16.559 0.0099999998
68.119003 -17.629 0.60000002
67.969002 -17.299 0.56
67.768997 -16.860001 0.44999999
67.679001 -16.669001 0.38999999
67.649002 -16.589001 0.31
67.658997 -16.620001 0.2
67.639 -16.58 0.11
67.658997 -16.620001 -0
68.018997 -17.620001 0.62
67.869003 -17.280001 0.56999999
67.690002 -16.879 0.44999999
67.609001 -16.709 0.38999999
67.57 -16.620001 0.31
67.609001 -16.709 0.2
67.57 -16.620001 0.11
67.588997 -16.679001 -0
67.959 -17.679001 0.62
67.848999 -17.450001 0.56
67.738998 -17.200001 0.5
67.609001 -16.91 0.46000001
67.549004 -16.768999 0.38999999
67.510002 -16.688999 0.31
67.528999 -16.75 0.2
67.5 -16.669001 0.12
67.518997 -16.719 0.0099999998
67.940002 -17.849001 0.60000002
67.789001 -17.518999 0.56
67.639 -17.200001 0.50999999
67.579002 -17.049 0.44999999
67.5 -16.870001 0.38999999
67.440002 -16.74 0.31
67.488998 -16.870001 0.18000001
67.418999 -16.719 0.12
67.448997 -16.768999 0.0099999998
67.848999 -17.849001 0.60000002
67.738998 -17.620001 0.54000002
67.588997 -17.290001 0.5
67.510002 -17.099001 0.44999999
67.389 -16.849001 0.38999999
67.369003 -16.809 0.31
67.348999 -16.759001 0.23
67.348999 -16.768999 0.12
67.359001 -16.799 0.0099999998
67.760002 -17.849001 0.62
67.619003 -17.559 0.56
67.518997 -17.33 0.50999999
67.448997 -17.169001 0.44999999
67.359001 -16.979 0.38999999
67.32 -16.889 0.31
67.329002 -16.929001 0.2
67.289001 -16.83 0.12
67.289001 -16.839001 0.0099999998
67.299004 -16.860001 -0.079999998
67.848999 -18.25 0.75999999
67.808998 -18.179001 0.67000002
67.679001 -17.879 0.62
67.588997 -17.688999 0.56
67.448997 -17.389 0.5
67.348999 -17.169001 0.44999999
67.289001 -17.030001 0.37
67.338997 -17.16 0.25
67.268997 -17 0.18000001
67.228996 -16.899 0.11
67.228996 -16.91 0.0099999998
67.228996 -16.919001 -0.079999998
67.738998 -18.24 0.67000002
67.658997 -18.059 0.58999997
67.528999 -17.759001 0.54000002
67.429001 -17.559 0.47999999
67.32 -17.299 0.43000001
67.25 -17.149 0.37
67.268997 -17.209 0.25
67.219002 -17.08 0.17
67.158997 -16.959 0.1
67.158997 -16.969 -0
67.728996 -18.41 0.63999999
67.709 -18.370001 0.54000002
67.478996 -17.870001 0.52999997
67.369003 -17.620001 0.47999999
67.278999 -17.429001 0.41999999
67.209 -17.268999 0.34
67.198997 -17.25 0.25
67.129997 -17.099001 0.18000001
67.098999 -17.040001 0.1
67.119003 -17.089001 -0.0099999998
67.369003 -17.83 0.43000001
67.268997 -17.610001 0.38999999
67.158997 -17.360001 0.34
67.149002 -17.339001 0.23
67.07 -17.169001 0.17
67.07 -17.16 0.07
67.098999 -17.25 -0.029999999
67.209 -17.688999 0.16
67.190002 -17.639 0.07
67.168999 -17.599001 -0.0099999998
67.158997 -17.599001 0.029999999
67.268997 -17.610001 0.34
67.289001 -17.66 0.31
67.389 -17.929001 0.37
67.429001 -18.049 0.38999999
67.448997 -18.099001 0.34999999
67.478996 -18.188999 0.34
67.469002 -18.16 0.28
67.488998 -18.200001 0.25
67.448997 -18.089001 0.14
67.429001 -18.049 0.07
67.448997 -18.089001 0.029999999
67.459 -18.110001 -0
67.459 -18.129 -0.050000001
67.338997 -17.540001 0.37
67.448997 -17.82 0.44999999
67.5 -17.969 0.46000001
67.57 -18.139 0.5
67.619003 -18.280001 0.50999999
67.728996 -18.58 0.60000002
67.728996 -18.58 0.56
67.75 -18.639 0.54000002
67.690002 -18.49 0.41999999
67.760002 -18.649 0.44999999
67.75 -18.620001 0.38999999
67.738998 -18.599001 0.31999999
67.75 -18.629 0.28999999
67.738998 -18.620001 0.25
67.738998 -18.599001 0.17
67.778999 -18.729 0.2
67.75 -18.639 0.1
67.528999 -17.780001 0.44999999
67.619003 -18.009001 0.5
67.698997 -18.25 0.56
67.75 -18.370001 0.56
67.978996 -18.99 0.50999999
67.899002 -18.790001 0.34999999
67.510002 -17.459 0.38999999
67.609001 -17.729 0.44999999
67.679001 -17.91 0.47999999
67.929001 -18.58 0.5
67.558998 -17.309 0.38999999
67.649002 -17.559 0.44999999
67.768997 -17.889 0.52999997
67.969002 -18.429001 0.54000002
68.010002 -18.549 0.46000001
68.039001 -18.620001 0.44999999
67.619003 -17.229 0.37
67.738998 -17.540001 0.44999999
68.049004 -18.399 0.54000002
67.760002 -17.309 0.41999999
68.198997 -18.530001 0.44999999
67.848999 -17.309 0.43000001
67.908997 -17.200001 0.40000001
67.098999 -17.229 0.0099999998
67.139 -17.309 -0
67.179001 -17.169001 0.37
67.198997 -17.209 0.31999999
67.168999 -17.149 0.23
67.260002 -17.360001 0.28
67.308998 -17.469 0.25999999
67.308998 -17.459 0.2
67.278999 -17.399 0.11
67.299004 -17.450001 0.07
67.308998 -17.469 0.029999999
67.32 -17.509001 -0
67.308998 -17.479 -0.079999998
67.359001 -17.339001 0.50999999
67.528999 -17.74 0.34999999
67.518997 -17.709 0.28
67.448997 -17.549 0.15000001
67.440002 -17.530001 0.079999998
67.469002 -17.599001 0.07
67.478996 -17.629 0.029999999
67.488998 -17.649 -0.02
67.348999 -17.08 0.64999998
67.778999 -18.07 0.77999997
67.829002 -18.179001 0.52999997
67.75 -18.018999 0.38999999
67.778999 -18.08 0.37
67.778999 -18.07 0.31999999
67.440002 -17.040001 0.64999998
67.848999 -18 0.87
67.848999 -17.99 0.81
67.848999 -18 0.75999999
67.859001 -18.009001 0.73000002
68.039001 -18.438999 0.47999999
68.049004 -18.459 0.44999999
68.049004 -18.459 0.38999999
67.988998 -18.33 0.25999999
68.028999 -18.41 0.25999999
67.978996 -18.309 0.15000001
68.079002 -18.049 0.81999999
68.07 -18.07 0.56999999
68.010002 -18.110001 0.56
68.190002 -18.229 0.58999997
67.969002 -18.599001 0.47999999
67.959 -18.790001 0.44999999
68.190002 -18.030001 0.58999997
68.139 -18.08 0.56
68.338997 -18.209 0.62
67.929001 -18.768999 0.40000001
67.978996 -18.849001 0.40000001
67.629997 -17.479 0.44999999
68.079002 -17.919001 0.52999997
68.219002 -18.040001 0.56
67.929001 -18.768999 0.37
67.948997 -18.839001 0.37
67.738998 -17.450001 0.44999999
67.879997 -17.57 0.47999999
68.338997 -18 0.56999999
67.918999 -18.759001 0.34
67.848999 -17.41 0.44999999
68.039001 -17.549 0.5
67.889 -17.339001 0.44999999
68.079002 -17.479 0.47999999
68.209 -17.599001 0.50999999
67.940002 -17.280001 0.43000001
68.168999 -17.438999 0.5
68.289001 -17.549 0.50999999
68.579002 -17.719 0.58999997
68.018997 -17.229 0.43000001
68.168999 -17.360001 0.46000001
68.369003 -17.509001 0.50999999
68.010002 -18.509001 0.25
68.079002 -17.179001 0.41999999
68.260002 -17.32 0.46000001
67.859001 -18.41 0.2
68.079002 -17.089001 0.40000001
68.109001 -17.030001 0.38999999
68.018997 -18.179001 0.5
68.058998 -18.188999 0.47999999
