# .PCD v0.7 - Point Cloud Data file format
VERSION 0.7
FIELDS x y z
SIZE 4 4 4
TYPE F F F
COUNT 1 1 1
WIDTH 172
HEIGHT 1
VIEWPOINT 0 0 0 1 0 0 0
POINTS 172
DATA ascii
65.768997 -17.839001 0.62
66.129997 -18.040001 0.70999998
66.469002 -18.209 0.73000002
66.698997 -18.33 0.56
65.709 -18.188999 0.63999999
66.058998 -18.370001 0.69999999
66.018997 -17.889 0.67000002
66.25 -18.018999 0.73000002
66.469002 -18.149 0.75
66.690002 -18.280001 0.69999999
65.459 -18.16 0.67000002
65.690002 -18.290001 0.73000002
65.908997 -18.419001 0.73000002
66.139 -18.549 0.81
65.738998 -18.089001 0.67000002
66.049004 -18.209 0.70999998
66.369003 -18.33 0.73000002
66.149002 -18.179001 0.58999997
65.588997 -18.299 0.56
65.668999 -18.099001 0.56999999
65.869003 -17.938999 0.52999997
65.808998 -18.419001 0.62
66.010002 -18.259001 0.60000002
66.209 -18.099001 0.58999997
66.469002 -18.41 0.58999997
67.039001 -18.33 0.69999999
67.039001 -18.530001 0.67000002
67.039001 -18.530001 0.56
66.940002 -18.33 0.28
66.918999 -18.280001 0.2
66.879997 -18.188999 0.1
66.829002 -18.08 0.029999999
66.838997 -18.099001 -0.079999998
66.879997 -18.370001 0.69999999
66.829002 -18.259001 0.62
66.728996 -18.059 0.56
66.679001 -17.938999 0.47999999
66.929001 -18.669001 1.0700001
66.940002 -18.688999 0.95999998
66.918999 -18.66 0.87
66.829002 -18.469 0.79000002
66.799004 -18.41 0.69999999
66.738998 -18.268999 0.62
66.629997 -18.040001 0.56
66.478996 -17.709 0.52999997
66.528999 -18.018999 0.56
66.558998 -18.280001 0.63999999
66.469002 -18.309 0.63999999
66.359001 -18.07 0.56999999
66.379997 -18.32 0.63999999
66.308998 -18.149 0.56
66.32 -18.389 0.63999999
66.228996 -18.200001 0.56999999
66.228996 -18.399 0.63999999
66.129997 -18.179001 0.58999997
66.028999 -17.950001 0.52999997
66.139 -18.41 0.63999999
66 -18.099001 0.60000002
65.969002 -18.030001 0.50999999
66.088997 -18.5 0.63999999
65.940002 -18.169001 0.58999997
65.838997 -17.969 0.52999997
66.018997 -18.57 0.62
65.859001 -18.200001 0.58999997
65.789001 -18.049 0.50999999
65.889 -18.49 0.63999999
65.760002 -18.200001 0.58999997
65.668999 -18.018999 0.52999997
65.82 -18.540001 0.62
65.698997 -18.268999 0.56999999
65.609001 -18.07 0.50999999
65.75 -18.599001 0.62
65.609001 -18.290001 0.58999997
65.549004 -18.149 0.50999999
67.278999 -18.219 1.1
67.289001 -18.25 1
67.219002 -18.299 1.09
67.219002 -18.299 1
67.088997 -18.219 1.03
67.088997 -18.219 0.92000002
67.07 -18.179001 0.83999997
67.049004 -18.129 0.75
67.028999 -18.099001 0.67000002
67 -18.018999 0.56999999
67.039001 -18.129 0.37
67.079002 -18.229 0.25
67.058998 -18.379 1.29
67.028999 -18.32 1.2
67.010002 -18.25 1.12
66.978996 -18.188999 1.03
66.948997 -18.120001 0.94999999
66.848999 -17.889 0.88999999
66.789001 -17.74 0.81999999
66.768997 -17.709 0.73000002
66.738998 -17.639 0.67000002
66.738998 -17.620001 0.56999999
66.719002 -17.589001 0.47999999
66.709 -17.57 0.31
66.698997 -17.540001 0.20999999
66.690002 -17.530001 0.12
66.948997 -18.360001 1.2
66.829002 -18.059 0.95999998
66.75 -17.879 0.89999998
66.658997 -17.679001 0.83999997
66.598999 -17.530001 0.77999997
66.789001 -18.200001 1.0599999
66.760002 -18.129 0.95999998
66.658997 -17.889 0.92000002
66.588997 -17.729 0.85000002
66.510002 -17.540001 0.79000002
66.658997 -18.129 0.98000002
66.57 -17.899 0.92000002
66.488998 -17.729 0.85000002
66.57 -18.149 0.98000002
66.478996 -17.929001 0.92000002
66.418999 -17.780001 0.85000002
66.469002 -18.129 1
66.408997 -17.99 0.93000001
66.338997 -17.83 0.87
66.418999 -18.24 1
66.32 -18.018999 0.93000001
66.238998 -17.82 0.87
66.289001 -18.169001 1.01
66.25 -18.089001 0.94999999
66.179001 -17.919001 0.87
66.088997 -17.700001 0.81999999
66.260002 -18.339001 1.01
66.179001 -18.149 0.94999999
66.098999 -17.979 0.88999999
66.018997 -17.768999 0.83999997
66.119003 -18.259001 0.94999999
66.028999 -18.040001 0.88999999
65.948997 -17.839001 0.83999997
65.899002 -17.719 0.75999999
66.07 -18.370001 1.03
66.028999 -18.280001 0.94999999
65.948997 -18.089001 0.88999999
65.848999 -17.849001 0.83999997
65.808998 -17.759001 0.77999997
65.959 -18.33 0.94999999
65.869003 -18.120001 0.89999998
65.778999 -17.91 0.83999997
65.738998 -17.809 0.77999997
65.879997 -18.370001 0.95999998
65.799004 -18.200001 0.88999999
65.719002 -18.009001 0.83999997
65.649002 -17.839001 0.77999997
65.799004 -18.438999 0.94999999
65.709 -18.24 0.89999998
65.629997 -18.040001 0.83999997
65.57 -17.899 0.77999997
65.728996 -18.518999 0.94999999
65.629997 -18.280001 0.89999998
65.57 -18.129 0.83999997
65.5 -17.959 0.77999997
65.649002 -18.530001 0.94999999
65.558998 -18.33 0.88999999
65.469002 -18.129 0.83999997
65.418999 -18.009001 0.77999997
65.57 -18.599001 0.94999999
65.389 -18.169001 0.83999997
65.588997 -18.299 0.56
65.698997 -18.559 0.58999997
65.679001 -18.280001 0.56
65.778999 -18.5 0.58999997
65.789001 -18.280001 0.58999997
65.889 -18.530001 0.62
65.869003 -18.229 0.58999997
65.940002 -18.149 0.56
66.010002 -18.059 0.56
66.098999 -18.040001 0.56
66.179001 -17.99 0.56
