# .PCD v0.7 - Point Cloud Data file format
VERSION 0.7
FIELDS x y z
SIZE 4 4 4
TYPE F F F
COUNT 1 1 1
WIDTH 1342
HEIGHT 1
VIEWPOINT 0 0 0 1 0 0 0
POINTS 1342
DATA ascii
66.808998 -20.209 1.39
67.129997 -20.370001 1.4
67.440002 -20.540001 1.39
66.948997 -20.629 1.37
67.260002 -20.790001 1.37
66.869003 -20.07 1.39
67.088997 -20.200001 1.39
67.32 -20.339001 1.4
67.768997 -20.599001 1.0599999
67.369003 -20.938999 0.92000002
67.588997 -21.07 1.0599999
66.789001 -19.979 1.4
66.959 -20.530001 1.37
67.299004 -20.66 1.35
67.768997 -21.120001 0.79000002
67.25 -20.32 1.12
67.179001 -21.25 0.83999997
67.158997 -21.610001 0.85000002
67.149002 -21.74 0.43000001
66.679001 -19.780001 1.15
66.658997 -19.599001 1.14
66.838997 -20.040001 1.17
67.049004 -21.259001 0.79000002
67.260002 -21.099001 0.83999997
67.459 -20.938999 0.81999999
67.658997 -20.780001 0.83999997
67.838997 -21.049 0.85000002
68.139 -20.549 0.31
66.728996 -19.679001 1.2
66.709 -19.839001 1.17
66.859001 -21.438999 0.73000002
68.549004 -20.809 0.93000001
68.549004 -20.809 0.81
68.5 -20.679001 0.70999998
68.448997 -20.57 0.62
68.558998 -20.849001 0.34
68.679001 -21.139 0.16
68.668999 -21.110001 0.050000001
68.228996 -20.259001 1.03
68.209 -20.219 0.92000002
68.338997 -20.549 0.17
68.369003 -20.629 0.039999999
67.709 -21.110001 1.1
67.639 -21.16 1.1
67.57 -20.99 1.01
67.539001 -20.919001 0.89999998
67.528999 -21.139 1.12
67.478996 -21.009001 1.03
67.478996 -21.018999 0.89999998
67.459 -20.99 0.79000002
67.429001 -21.139 1.14
67.399002 -21.08 1.03
67.399002 -21.08 0.92000002
67.408997 -21.089001 0.81
67.369003 -21.24 1.14
67.32 -21.120001 1.04
67.32 -21.110001 0.93000001
67.32 -21.120001 0.81
67.299004 -21.299 1.14
67.198997 -21.07 1.0599999
67.209 -21.08 0.94999999
67.209 -21.089001 0.83999997
67.238998 -21.370001 1.15
67.079002 -21 0.95999998
67.010002 -21.08 1.2
66.899002 -21.059 1.2
66.959 -21.25 0.81
66.969002 -21.280001 0.77999997
66.978996 -21.309 0.77999997
66.988998 -21.339001 0.75
67.010002 -21.389 0.75
67.058998 -21.49 0.77999997
67.07 -21.530001 0.77999997
67.079002 -21.549 0.75
67.088997 -21.559 0.73000002
67.098999 -21.58 0.69999999
67.098999 -21.589001 0.67000002
67.129997 -21.649 0.68000001
67.139 -21.679001 0.67000002
67.149002 -21.700001 0.64999998
67.168999 -21.74 0.64999998
67.158997 -21.729 0.60000002
67.168999 -21.75 0.58999997
67.168999 -21.75 0.54000002
67.179001 -21.780001 0.52999997
66.929001 -20.950001 1.12
66.929001 -20.959 1.09
66.959 -21.009001 1.09
66.969002 -21.040001 1.0599999
67 -21.110001 1.0599999
67.018997 -21.149 1.0599999
67.018997 -21.16 1.03
67.028999 -21.169001 1
67.049004 -21.219 1
67.07 -21.268999 0.98000002
67.079002 -21.290001 0.95999998
67.079002 -21.309 0.94999999
67.109001 -21.370001 0.94999999
67.119003 -21.399 0.92000002
67.129997 -21.429001 0.92000002
67.139 -21.429001 0.88999999
67.139 -21.450001 0.87
67.168999 -21.5 0.87
67.179001 -21.530001 0.83999997
67.168999 -21.509001 0.79000002
67.209 -21.599001 0.81999999
67.209 -21.610001 0.79000002
67.219002 -21.629 0.77999997
67.260002 -21.709 0.81
67.260002 -21.729 0.77999997
67.278999 -21.768999 0.77999997
67.299004 -21.82 0.77999997
67.299004 -21.82 0.75
67.308998 -21.83 0.73000002
67.338997 -21.899 0.75
67.359001 -21.938999 0.75
67.359001 -21.959 0.73000002
67.010002 -20.899 1.12
67.039001 -20.950001 1.12
67.049004 -20.99 1.1
67.018997 -20.91 1.01
67.129997 -21.179001 0.95999998
67.149002 -21.219 0.94999999
67.168999 -21.268999 0.94999999
67.179001 -21.290001 0.92000002
67.179001 -21.280001 0.88999999
67.219002 -21.370001 0.92000002
67.209 -21.349001 0.87
67.219002 -21.389 0.85000002
67.238998 -21.429001 0.83999997
67.260002 -21.459 0.83999997
67.25 -21.450001 0.77999997
67.278999 -21.518999 0.81
67.32 -21.620001 0.83999997
67.329002 -21.639 0.81999999
67.338997 -21.66 0.81
67.379997 -21.759001 0.83999997
67.379997 -21.759001 0.81
67.408997 -21.82 0.79000002
67.418999 -21.839001 0.73000002
67.440002 -21.899 0.75
67.469002 -21.969 0.77999997
67.459 -21.938999 0.70999998
67.440002 -21.879 0.63999999
66.579002 -19.639 1.12
66.658997 -19.839001 1.15
66.698997 -19.938999 1.15
67.028999 -20.700001 1.15
67.049004 -20.74 1.14
67.088997 -20.83 1.14
67.098999 -20.860001 1.12
67.119003 -20.899 1.12
67.119003 -20.899 1.0700001
67.209 -21.110001 0.87
67.219002 -21.139 0.87
67.219002 -21.129 0.81
67.228996 -21.16 0.81
67.329002 -21.389 0.92000002
67.289001 -21.299 0.81999999
67.329002 -21.399 0.85000002
67.348999 -21.450001 0.85000002
67.369003 -21.479 0.83999997
67.399002 -21.549 0.87
67.389 -21.530001 0.81
67.418999 -21.599001 0.83999997
67.440002 -21.639 0.81999999
67.448997 -21.669001 0.81
67.478996 -21.75 0.83999997
67.5 -21.780001 0.83999997
67.510002 -21.799 0.81
66.649002 -19.57 1.1
66.75 -19.799 1.15
66.82 -19.959 1.17
66.859001 -20.049 1.17
66.899002 -20.16 1.1799999
66.929001 -20.209 1.17
66.978996 -20.33 1.1799999
67 -20.389 1.17
67.028999 -20.450001 1.17
67.07 -20.549 1.17
67.088997 -20.599001 1.17
67.119003 -20.66 1.15
67.149002 -20.729 1.15
67.158997 -20.75 1.12
67.190002 -20.83 1.14
67.209 -20.870001 1.12
67.198997 -20.839001 1.0599999
67.260002 -20.99 0.87
67.299004 -21.07 0.88999999
67.299004 -21.089001 0.85000002
67.308998 -21.099001 0.81999999
67.308998 -21.099001 0.79000002
67.408997 -21.33 0.92000002
67.440002 -21.399 0.88999999
67.448997 -21.419001 0.87
67.478996 -21.49 0.88999999
67.459 -21.459 0.83999997
67.478996 -21.49 0.81999999
67.510002 -21.559 0.83999997
67.528999 -21.620001 0.83999997
67.549004 -21.66 0.83999997
67.57 -21.709 0.85000002
67.57 -21.709 0.81
67.588997 -21.75 0.81
67.598999 -21.768999 0.79000002
67.649002 -21.899 0.81
66.848999 -19.799 1.17
67.028999 -20.219 1.2
67.07 -20.290001 1.1799999
67.088997 -20.339001 1.17
67.119003 -20.419001 1.17
67.149002 -20.49 1.17
67.190002 -20.589001 1.17
67.209 -20.639 1.17
67.228996 -20.669001 1.14
67.260002 -20.74 1.14
67.268997 -20.759001 1.12
67.289001 -20.82 1.12
67.289001 -20.82 1.09
67.348999 -20.959 0.88999999
67.359001 -20.969 0.83999997
67.369003 -21 0.83999997
67.389 -21.040001 0.81999999
67.408997 -21.089001 0.81
67.459 -21.209 0.87
67.518997 -21.349001 0.92000002
67.528999 -21.379 0.92000002
67.528999 -21.370001 0.87
67.558998 -21.429001 0.88999999
67.57 -21.469 0.87
67.588997 -21.518999 0.83999997
67.619003 -21.57 0.83999997
67.639 -21.620001 0.83999997
67.639 -21.629 0.81999999
67.668999 -21.700001 0.83999997
67.690002 -21.74 0.83999997
67.709 -21.799 0.87
67.719002 -21.809 0.83999997
67.738998 -21.849001 0.83999997
67.738998 -21.860001 0.81
67.129997 -20.209 1.17
67.179001 -20.309 1.1799999
67.219002 -20.41 1.2
67.238998 -20.438999 1.17
67.278999 -20.549 1.1799999
67.289001 -20.57 1.17
67.308998 -20.610001 1.14
67.338997 -20.679001 1.14
67.348999 -20.709 1.12
67.369003 -20.759001 1.12
67.5 -21.059 0.87
67.539001 -21.149 0.88999999
67.510002 -21.08 0.81
67.57 -21.219 0.87
67.57 -21.219 0.83999997
67.629997 -21.349001 0.88999999
67.619003 -21.349001 0.85000002
67.658997 -21.429001 0.88999999
67.679001 -21.479 0.85000002
67.698997 -21.509001 0.83999997
67.719002 -21.57 0.83999997
67.728996 -21.589001 0.83999997
67.75 -21.639 0.83999997
67.778999 -21.700001 0.85000002
67.789001 -21.74 0.85000002
67.799004 -21.75 0.83999997
67.82 -21.809 0.83999997
67.838997 -21.839001 0.77999997
67.228996 -20.200001 1.2
67.260002 -20.25 1.17
67.289001 -20.32 1.17
67.32 -20.389 1.17
67.338997 -20.450001 1.17
67.369003 -20.518999 1.15
67.389 -20.559 1.14
67.418999 -20.629 1.14
67.440002 -20.679001 1.14
67.469002 -20.74 1.14
67.558998 -20.938999 0.85000002
67.549004 -20.919001 0.81
67.598999 -21.040001 0.83999997
67.598999 -21.040001 0.81
67.639 -21.139 0.85000002
67.639 -21.129 0.81
67.698997 -21.268999 0.87
67.75 -21.389 0.92000002
67.719002 -21.33 0.83999997
67.760002 -21.429001 0.83999997
67.778999 -21.469 0.83999997
67.808998 -21.530001 0.87
67.82 -21.559 0.83999997
67.838997 -21.610001 0.85000002
67.838997 -21.610001 0.81999999
67.869003 -21.669001 0.83999997
67.889 -21.709 0.83999997
67.908997 -21.759001 0.83999997
67.918999 -21.780001 0.75999999
67.369003 -20.268999 1.17
67.389 -20.309 1.15
67.429001 -20.399 1.17
67.448997 -20.459 1.15
67.488998 -20.540001 1.15
67.510002 -20.599001 1.15
67.518997 -20.620001 1.12
67.549004 -20.688999 1.12
67.639 -20.899 0.87
67.649002 -20.91 0.83999997
67.719002 -21.089001 0.88999999
67.75 -21.16 0.87
67.760002 -21.169001 0.83999997
67.789001 -21.25 0.85000002
67.838997 -21.349001 0.88999999
67.869003 -21.419001 0.87
67.879997 -21.438999 0.87
67.899002 -21.5 0.87
67.899002 -21.5 0.83999997
67.929001 -21.559 0.85000002
67.948997 -21.620001 0.87
67.948997 -21.620001 0.83999997
67.978996 -21.669001 0.83999997
67.988998 -21.709 0.83999997
67.988998 -21.709 0.81
67.510002 -20.349001 1.15
67.549004 -20.438999 1.17
67.558998 -20.469 1.14
67.579002 -20.509001 1.14
67.598999 -20.549 1.12
67.629997 -20.620001 1.12
67.629997 -20.620001 0.81999999
67.609001 -20.58 0.75999999
67.639 -20.649 0.77999997
67.738998 -20.889 0.88999999
67.75 -20.899 0.85000002
67.778999 -20.979 0.87
67.799004 -21.009001 0.87
67.829002 -21.099001 0.88999999
67.859001 -21.169001 0.89999998
67.848999 -21.129 0.83999997
67.869003 -21.188999 0.83999997
67.908997 -21.268999 0.87
67.940002 -21.349001 0.87
67.940002 -21.349001 0.83999997
67.969002 -21.399 0.83999997
67.978996 -21.438999 0.83999997
68.010002 -21.5 0.83999997
68.028999 -21.559 0.87
68.049004 -21.589001 0.85000002
68.049004 -21.610001 0.83999997
68.088997 -21.688999 0.83999997
68.079002 -21.669001 0.79000002
67.619003 -20.360001 1.15
67.639 -20.399 1.14
67.668999 -20.469 1.14
67.690002 -20.530001 1.14
67.719002 -20.58 1.12
67.768997 -20.709 0.92000002
67.760002 -20.679001 0.85000002
67.799004 -20.790001 0.88999999
67.82 -20.82 0.87
67.829002 -20.849001 0.85000002
67.838997 -20.879 0.83999997
67.879997 -20.959 0.85000002
67.899002 -21.009001 0.87
67.918999 -21.049 0.85000002
67.959 -21.149 0.88999999
67.948997 -21.139 0.83999997
67.969002 -21.169001 0.83999997
68.018997 -21.290001 0.85000002
68.028999 -21.299 0.81999999
68.058998 -21.379 0.85000002
68.07 -21.41 0.83999997
68.098999 -21.469 0.85000002
68.109001 -21.5 0.83999997
68.129997 -21.549 0.85000002
68.168999 -21.629 0.85000002
68.158997 -21.620001 0.77999997
68.168999 -21.620001 0.75
67.698997 -20.32 1.15
67.719002 -20.339001 1.12
67.75 -20.419001 1.14
67.760002 -20.459 1.12
67.789001 -20.509001 1.1
67.848999 -20.649 0.89999998
67.848999 -20.669001 0.87
67.859001 -20.679001 0.83999997
67.879997 -20.719 0.83999997
67.889 -20.74 0.81
67.959 -20.899 0.88999999
67.969002 -20.938999 0.87
68 -21 0.83999997
68.049004 -21.110001 0.88999999
68.039001 -21.089001 0.83999997
68 -21 0.75
68.088997 -21.200001 0.85000002
68.109001 -21.25 0.87
68.119003 -21.290001 0.85000002
68.129997 -21.299 0.83999997
68.168999 -21.389 0.87
68.168999 -21.389 0.83999997
68.190002 -21.438999 0.83999997
68.209 -21.49 0.85000002
68.228996 -21.530001 0.83999997
68.238998 -21.559 0.83999997
68.228996 -21.540001 0.79000002
68.238998 -21.559 0.77999997
67.808998 -20.309 1.14
67.82 -20.339001 1.12
67.848999 -20.41 1.12
67.859001 -20.438999 1.1
67.918999 -20.559 0.83999997
67.978996 -20.719 0.87
68 -20.759001 0.87
68.018997 -20.809 0.87
68.039001 -20.860001 0.85000002
68.028999 -20.82 0.75999999
68.119003 -21.030001 0.87
68.139 -21.08 0.87
68.139 -21.089001 0.83999997
68.179001 -21.16 0.87
68.179001 -21.179001 0.85000002
68.190002 -21.209 0.83999997
68.198997 -21.219 0.81
68.228996 -21.280001 0.81999999
68.25 -21.339001 0.83999997
68.278999 -21.399 0.85000002
68.299004 -21.438999 0.85000002
68.299004 -21.450001 0.81999999
68.32 -21.5 0.83999997
67.889 -20.268999 1.12
67.908997 -20.309 1.09
67.940002 -20.370001 1.09
67.959 -20.419001 1.09
68.018997 -20.559 1.12
68.039001 -20.620001 0.83999997
68.158997 -20.879 0.92000002
68.129997 -20.82 0.79000002
68.179001 -20.929001 0.83999997
68.209 -21 0.85000002
68.168999 -20.919001 0.75
68.25 -21.099001 0.87
68.25 -21.099001 0.81999999
68.268997 -21.129 0.81
68.299004 -21.209 0.83999997
68.299004 -21.200001 0.79000002
68.329002 -21.280001 0.81999999
68.338997 -21.309 0.81
68.359001 -21.349001 0.81
67.988998 -20.25 0.98000002
68.058998 -20.41 1.03
68.058998 -20.41 1
68.088997 -20.49 1
68.109001 -20.530001 1
68.129997 -20.57 0.98000002
68.158997 -20.639 1
68.179001 -20.688999 0.98000002
68.198997 -20.719 0.98000002
68.198997 -20.74 0.94999999
68.219002 -20.790001 0.81
68.278999 -20.929001 0.87
68.32 -21.009001 0.88999999
68.25 -20.849001 0.75
68.32 -21.018999 0.83999997
68.329002 -21.040001 0.81
68.348999 -21.089001 0.81
68.369003 -21.120001 0.81
68.389 -21.16 0.81
68.448997 -21.32 0.83999997
68.028999 -20.099001 0.73000002
68.058998 -20.169001 0.73000002
68.119003 -20.32 0.77999997
68.209 -20.509001 0.87
68.25 -20.610001 0.88999999
68.260002 -20.620001 0.87
68.268997 -20.669001 0.87
68.299004 -20.719 0.87
68.308998 -20.759001 0.85000002
68.348999 -20.839001 0.87
68.338997 -20.809 0.81999999
68.359001 -20.860001 0.81999999
68.379997 -20.899 0.81
68.399002 -20.950001 0.81
68.418999 -21.009001 0.83999997
68.418999 -21.009001 0.79000002
68.459 -21.089001 0.81999999
68.478996 -21.139 0.81999999
68.478996 -21.149 0.81
68.5 -21.188999 0.81
68.190002 -20.229 0.63999999
68.25 -20.360001 0.69999999
68.299004 -20.469 0.73000002
68.329002 -20.549 0.75
68.348999 -20.599001 0.75
68.359001 -20.620001 0.73000002
68.389 -20.700001 0.75
68.440002 -20.809 0.77999997
68.440002 -20.82 0.75
68.469002 -20.879 0.77999997
68.510002 -20.959 0.79000002
68.528999 -21.009001 0.79000002
68.549004 -21.049 0.79000002
68.57 -21.110001 0.81
68.57 -21.110001 0.77999997
68.518997 -20.979 0.58999997
68.488998 -20.679001 0.54000002
68.539001 -20.799 0.60000002
68.588997 -20.919001 0.67000002
68.609001 -20.969 0.67000002
67.399002 -21.979 0.68000001
67.679001 -21.74 1.01
67.359001 -21.809 0.69999999
67.119003 -21.75 0.41999999
67.168999 -21.709 0.75999999
67.079002 -21.438999 0.83999997
66.940002 -20.91 1.12
67 -20.959 1.14
67.119003 -21.030001 1.15
67.010002 -20.709 1.15
67.028999 -20.759001 1.14
67.039001 -20.809 1.14
67.058998 -20.860001 1.14
67.049004 -20.91 1.12
67.049004 -20.959 1.12
67.018997 -21 1.09
66.969002 -21.040001 1.0700001
67.018997 -21.099001 1.0700001
67.139 -21.149 1.09
67.129997 -20.669001 1.15
67.139 -20.719 1.15
67.158997 -20.768999 1.14
67.109001 -20.809 1.12
67.158997 -20.870001 1.12
67.198997 -20.919001 1.12
67.168999 -20.959 1.12
67.07 -21 1.0700001
67.168999 -21.049 1.09
67.129997 -21.099001 1.0700001
67.07 -21.139 1.04
67.028999 -21.179001 1.03
67.088997 -21.24 1.03
67.168999 -21.290001 1.04
67.168999 -20.620001 1.14
67.198997 -20.669001 1.14
67.260002 -20.719 1.15
67.268997 -20.768999 1.14
67.278999 -20.82 1.14
67.25 -20.870001 1.12
67.238998 -20.91 1.1
67.168999 -20.950001 1.0700001
67.168999 -21 1.0599999
67.058998 -21.040001 1.03
67.139 -21.089001 1.03
67.109001 -21.129 1.01
67.158997 -21.188999 1.03
67.219002 -21.24 1.03
67.119003 -21.280001 1
67.129997 -21.33 0.98000002
67.158997 -21.379 0.98000002
67.299004 -20.57 1.15
67.32 -20.620001 1.15
67.308998 -20.669001 1.14
67.348999 -20.719 1.14
67.348999 -20.768999 1.14
67.348999 -20.82 1.12
67.289001 -20.860001 1.09
67.379997 -20.91 1.12
67.139 -20.929001 1.03
67.348999 -21 1.09
67.359001 -21.049 1.0700001
67.299004 -21.089001 1.0599999
67.359001 -21.139 1.0599999
67.268997 -21.179001 1.03
67.209 -21.229 1
67.198997 -21.268999 0.98000002
67.228996 -21.32 0.98000002
67.079002 -21.370001 0.92000002
67.158997 -21.419001 0.93000001
67.389 -20.518999 1.15
67.369003 -20.57 1.14
67.418999 -20.620001 1.14
67.448997 -20.679001 1.14
67.478996 -20.729 1.14
67.469002 -20.768999 1.14
67.359001 -20.809 1.09
67.459 -20.860001 1.1
67.579002 -20.969 1.12
67.389 -21 1.0599999
67.260002 -21.030001 1.01
67.278999 -21.08 1.01
67.440002 -21.139 1.04
67.32 -21.179001 1
67.209 -21.219 0.95999998
67.209 -21.268999 0.94999999
67.139 -21.32 0.92000002
67.260002 -21.370001 0.94999999
67.238998 -21.419001 0.92000002
67.158997 -21.459 0.88999999
67.278999 -21.509001 0.92000002
67.478996 -20.479 1.15
67.478996 -20.530001 1.15
67.448997 -20.57 1.14
67.510002 -20.620001 1.14
67.528999 -20.669001 1.14
67.549004 -20.719 1.12
67.5 -20.759001 1.1
67.57 -20.82 1.12
67.528999 -20.91 1.09
67.228996 -20.929001 1
67.418999 -20.99 1.03
67.408997 -21.040001 1.03
67.389 -21.129 1
67.510002 -21.188999 1.03
67.348999 -21.229 0.95999998
67.168999 -21.268999 0.89999998
67.119003 -21.309 0.87
67.32 -21.370001 0.92000002
67.25 -21.419001 0.88999999
67.308998 -21.469 0.89999998
67.149002 -21.509001 0.83999997
67.238998 -21.559 0.87
67.518997 -20.419001 1.14
67.558998 -20.469 1.14
67.510002 -20.509001 1.12
67.609001 -20.58 1.14
67.598999 -20.620001 1.14
67.579002 -20.669001 1.12
67.539001 -20.709 1.09
67.510002 -20.75 1.0700001
67.549004 -20.899 1.0599999
67.679001 -20.959 1.09
67.588997 -21 1.04
67.588997 -21.040001 1.03
67.558998 -21.089001 1.03
67.549004 -21.129 1
67.528999 -21.179001 1
67.369003 -21.219 0.93000001
67.289001 -21.268999 0.89999998
67.260002 -21.309 0.88999999
67.198997 -21.360001 0.85000002
67.308998 -21.41 0.87
67.32 -21.459 0.87
67.329002 -21.509001 0.87
67.348999 -21.559 0.85000002
67.238998 -21.610001 0.81
67.329002 -21.66 0.83999997
67.598999 -20.370001 1.14
67.629997 -20.419001 1.14
67.629997 -20.469 1.14
67.658997 -20.518999 1.14
67.690002 -20.58 1.14
67.698997 -20.620001 1.12
67.629997 -20.66 1.09
67.838997 -20.780001 1.14
67.658997 -20.809 1.0700001
67.768997 -20.860001 1.09
67.579002 -20.938999 1.03
67.510002 -21.030001 0.98000002
67.609001 -21.08 1
67.448997 -21.120001 0.94999999
67.488998 -21.169001 0.94999999
67.268997 -21.209 0.87
67.228996 -21.259001 0.83999997
67.348999 -21.32 0.87
67.440002 -21.370001 0.88999999
67.510002 -21.41 0.89999998
67.5 -21.459 0.88999999
67.478996 -21.509001 0.87
67.478996 -21.559 0.87
67.440002 -21.610001 0.83999997
67.399002 -21.66 0.81
67.429001 -21.709 0.81
67.478996 -21.75 0.81999999
67.488998 -21.799 0.81
67.679001 -20.32 1.14
67.698997 -20.370001 1.14
67.690002 -20.419001 1.12
67.709 -20.469 1.12
67.738998 -20.518999 1.12
67.778999 -20.57 1.12
67.728996 -20.620001 1.09
67.629997 -20.649 1.0599999
67.57 -20.790001 1.01
67.719002 -20.849001 1.04
67.879997 -20.91 1.09
67.719002 -20.938999 1.03
67.429001 -20.969 0.93000001
67.639 -21.030001 0.98000002
67.369003 -21.07 0.88999999
67.338997 -21.120001 0.87
67.348999 -21.169001 0.87
67.359001 -21.219 0.87
67.408997 -21.268999 0.87
67.478996 -21.32 0.87
67.418999 -21.370001 0.85000002
67.598999 -21.41 0.88999999
67.588997 -21.459 0.87
67.528999 -21.509001 0.83999997
67.57 -21.559 0.85000002
67.518997 -21.610001 0.81999999
67.558998 -21.66 0.81999999
67.579002 -21.700001 0.81999999
67.598999 -21.75 0.81999999
67.619003 -21.799 0.81
67.679001 -21.889 0.81
67.75 -20.32 1.14
67.768997 -20.370001 1.12
67.778999 -20.419001 1.12
67.789001 -20.469 1.12
67.778999 -20.509001 1.09
67.760002 -20.559 1.09
67.698997 -20.649 1.04
67.728996 -20.700001 1.04
67.929001 -20.759001 1.09
67.588997 -20.780001 0.98000002
67.719002 -20.839001 1.01
67.459 -20.870001 0.92000002
67.57 -20.929001 0.94999999
67.429001 -20.969 0.89999998
67.478996 -21.018999 0.89999998
67.459 -21.07 0.88999999
67.408997 -21.120001 0.87
67.408997 -21.16 0.85000002
67.639 -21.219 0.89999998
67.57 -21.268999 0.88999999
67.619003 -21.32 0.88999999
67.549004 -21.370001 0.85000002
67.738998 -21.41 0.88999999
67.528999 -21.459 0.81999999
67.649002 -21.509001 0.85000002
67.639 -21.559 0.83999997
67.658997 -21.610001 0.83999997
67.629997 -21.66 0.81
67.719002 -21.700001 0.83999997
67.719002 -21.75 0.81999999
67.778999 -21.790001 0.83999997
67.778999 -21.839001 0.81999999
67.778999 -20.309 1.1
67.82 -20.370001 1.1
67.869003 -20.419001 1.12
67.859001 -20.459 1.09
67.82 -20.509001 1.0700001
68 -20.669001 1.09
67.558998 -20.919001 0.92000002
67.389 -20.959 0.85000002
67.418999 -21.009001 0.85000002
67.408997 -21.07 0.83999997
67.399002 -21.120001 0.81999999
67.598999 -21.169001 0.87
67.728996 -21.219 0.89999998
67.768997 -21.268999 0.89999998
67.709 -21.32 0.87
67.679001 -21.370001 0.85000002
67.738998 -21.41 0.87
67.609001 -21.459 0.81
67.698997 -21.509001 0.83999997
67.719002 -21.559 0.81999999
67.760002 -21.610001 0.81999999
67.778999 -21.649 0.81999999
67.778999 -21.700001 0.81
67.82 -21.75 0.81
67.899002 -21.790001 0.83999997
67.889 -21.839001 0.81999999
67.869003 -20.259001 1.1
67.869003 -20.309 1.09
67.908997 -20.370001 1.09
67.889 -20.41 1.09
67.889 -20.459 1.0700001
67.429001 -20.959 0.83999997
67.698997 -21.018999 0.88999999
67.649002 -21.07 0.87
67.760002 -21.120001 0.88999999
67.75 -21.169001 0.88999999
67.799004 -21.219 0.88999999
67.75 -21.268999 0.87
67.82 -21.32 0.87
67.738998 -21.370001 0.83999997
67.82 -21.41 0.85000002
67.808998 -21.459 0.83999997
67.808998 -21.509001 0.83999997
67.848999 -21.559 0.83999997
67.869003 -21.599001 0.81999999
67.918999 -21.649 0.83999997
67.948997 -21.700001 0.83999997
67.959 -21.74 0.81999999
67.988998 -21.790001 0.81999999
67.82 -20.24 1.0599999
67.848999 -20.299 1.0599999
67.940002 -20.360001 1.0700001
67.969002 -20.41 1.0700001
67.978996 -20.459 1.0599999
67.988998 -20.5 1.0599999
68.010002 -20.549 1.0599999
67.698997 -20.969 0.87
67.649002 -21.018999 0.83999997
67.728996 -21.07 0.87
67.838997 -21.120001 0.88999999
67.848999 -21.169001 0.87
67.929001 -21.219 0.88999999
67.859001 -21.268999 0.87
67.908997 -21.309 0.87
67.948997 -21.360001 0.87
67.908997 -21.41 0.83999997
67.879997 -21.459 0.81999999
67.929001 -21.509001 0.83999997
67.929001 -21.559 0.81999999
67.959 -21.599001 0.81
68.028999 -21.649 0.83999997
68.028999 -21.688999 0.81999999
68.07 -21.74 0.81999999
67.889 -20.290001 1.03
67.940002 -20.349001 1.04
67.959 -20.399 1.03
68 -20.450001 1.03
68.039001 -20.5 1.03
68.058998 -20.549 1.03
68.088997 -20.599001 1.03
67.668999 -20.919001 0.83999997
67.679001 -20.969 0.83999997
67.789001 -21.018999 0.85000002
67.889 -21.07 0.87
67.869003 -21.120001 0.85000002
67.948997 -21.169001 0.87
67.959 -21.219 0.87
67.959 -21.268999 0.85000002
67.869003 -21.32 0.81
67.978996 -21.360001 0.83999997
68 -21.41 0.83999997
67.969002 -21.459 0.81
68.049004 -21.5 0.83999997
68.079002 -21.549 0.83999997
68.119003 -21.599001 0.83999997
68.088997 -21.649 0.81
68.139 -21.688999 0.81
68.039001 -20.399 1.03
68.028999 -20.438999 1.01
68.028999 -20.49 1
68.07 -20.540001 1
68.079002 -20.589001 1
68.119003 -20.639 1
68.158997 -20.688999 1
67.978996 -20.83 0.92000002
67.829002 -20.870001 0.87
67.738998 -20.919001 0.81999999
67.929001 -20.969 0.87
67.940002 -21.018999 0.87
67.929001 -21.07 0.85000002
68.039001 -21.120001 0.87
68 -21.169001 0.85000002
67.978996 -21.219 0.83999997
68.079002 -21.259001 0.85000002
68.018997 -21.32 0.81999999
68.079002 -21.360001 0.83999997
68.109001 -21.41 0.83999997
68.129997 -21.459 0.83999997
68.139 -21.5 0.81999999
68.168999 -21.549 0.81999999
68.190002 -21.599001 0.81
68.228996 -21.639 0.81999999
68.010002 -20.379 0.98000002
68.088997 -20.49 0.98000002
68.07 -20.540001 0.95999998
68.119003 -20.589001 0.98000002
68.168999 -20.639 0.98000002
68.190002 -20.688999 0.98000002
68.198997 -20.74 0.95999998
68.088997 -20.780001 0.92000002
67.908997 -20.82 0.87
67.889 -20.870001 0.83999997
67.869003 -20.919001 0.81999999
68.039001 -20.969 0.87
67.988998 -21.018999 0.83999997
68.028999 -21.07 0.83999997
68.079002 -21.120001 0.83999997
68.088997 -21.169001 0.83999997
68.158997 -21.219 0.85000002
68.129997 -21.259001 0.83999997
68.109001 -21.309 0.81
68.129997 -21.360001 0.81
68.168999 -21.41 0.81
68.198997 -21.459 0.81
68.219002 -21.5 0.81
68.260002 -21.549 0.81
68.278999 -21.589001 0.81
68.028999 -20.379 0.94999999
68.088997 -20.479 0.94999999
68.139 -20.540001 0.94999999
68.139 -20.58 0.94999999
68.179001 -20.629 0.94999999
68.198997 -20.679001 0.93000001
68.228996 -20.729 0.93000001
68.228996 -20.780001 0.92000002
68.299004 -20.83 0.93000001
68.028999 -20.870001 0.83999997
68.088997 -20.919001 0.85000002
68.228996 -20.969 0.88999999
68.149002 -21.018999 0.85000002
68.07 -21.07 0.81999999
68.190002 -21.120001 0.83999997
68.198997 -21.169001 0.83999997
68.228996 -21.219 0.83999997
68.228996 -21.259001 0.81999999
68.238998 -21.309 0.81999999
68.238998 -21.360001 0.81
68.308998 -21.399 0.81999999
68.299004 -21.450001 0.81
68.028999 -20.370001 0.92000002
68.179001 -20.530001 0.92000002
68.168999 -20.58 0.92000002
68.209 -20.629 0.92000002
68.198997 -20.679001 0.89999998
68.278999 -20.729 0.92000002
68.268997 -20.780001 0.89999998
68.238998 -20.83 0.88999999
68.289001 -20.879 0.88999999
68.119003 -20.919001 0.81999999
68.190002 -20.969 0.83999997
68.268997 -21.018999 0.85000002
68.190002 -21.07 0.81999999
68.238998 -21.120001 0.81999999
68.260002 -21.169001 0.81999999
68.268997 -21.219 0.81
68.308998 -21.259001 0.81
68.338997 -21.309 0.81
68.369003 -21.360001 0.81
68.07 -20.370001 0.88999999
67.899002 -20.459 0.81999999
68.158997 -20.518999 0.88999999
68.179001 -20.58 0.88999999
68.219002 -20.629 0.88999999
68.299004 -20.679001 0.88999999
68.299004 -20.729 0.88999999
68.308998 -20.780001 0.87
68.329002 -20.83 0.87
68.32 -20.870001 0.87
68.299004 -20.919001 0.83999997
68.278999 -20.969 0.81999999
68.299004 -21.018999 0.81999999
68.278999 -21.07 0.81
68.329002 -21.120001 0.81
68.359001 -21.169001 0.81
68.359001 -21.209 0.81
68.379997 -21.259001 0.79000002
68.429001 -21.309 0.81
68.039001 -20.370001 0.83999997
67.879997 -20.459 0.77999997
68.158997 -20.518999 0.85000002
68.209 -20.58 0.85000002
68.25 -20.629 0.85000002
68.25 -20.679001 0.83999997
68.260002 -20.729 0.83999997
68.278999 -20.780001 0.83999997
68.369003 -20.83 0.83999997
68.348999 -20.870001 0.83999997
68.338997 -20.919001 0.81999999
68.369003 -20.969 0.81999999
68.338997 -21.018999 0.79000002
68.348999 -21.07 0.79000002
68.399002 -21.120001 0.79000002
68.429001 -21.169001 0.79000002
68.440002 -21.209 0.79000002
68 -20.360001 0.81
67.899002 -20.459 0.75
68.179001 -20.518999 0.81999999
68.238998 -20.57 0.81999999
68.25 -20.620001 0.81999999
68.268997 -20.669001 0.81
68.289001 -20.719 0.81
68.308998 -20.768999 0.81
68.359001 -20.83 0.81
68.359001 -20.870001 0.81
68.379997 -20.919001 0.79000002
68.399002 -20.969 0.79000002
68.399002 -21.018999 0.77999997
68.469002 -21.07 0.79000002
68.488998 -21.120001 0.77999997
68.058998 -20.309 0.79000002
67.859001 -20.349001 0.73000002
67.889 -20.399 0.73000002
68.098999 -20.459 0.77999997
68.190002 -20.518999 0.77999997
68.260002 -20.57 0.79000002
68.260002 -20.620001 0.77999997
68.329002 -20.669001 0.79000002
68.32 -20.719 0.77999997
68.338997 -20.768999 0.77999997
68.379997 -20.82 0.77999997
68.369003 -20.870001 0.75999999
68.418999 -20.919001 0.77999997
68.459 -20.969 0.77999997
68.5 -21.018999 0.77999997
68.518997 -21.07 0.77999997
68.539001 -21.120001 0.75999999
68.079002 -20.309 0.75999999
68.018997 -20.360001 0.73000002
68.049004 -20.41 0.73000002
68.209 -20.469 0.75999999
68.238998 -20.518999 0.75999999
68.238998 -20.57 0.75
68.25 -20.620001 0.75
68.289001 -20.679001 0.75
68.338997 -20.729 0.75
68.369003 -20.780001 0.75
68.418999 -20.83 0.75
68.448997 -20.879 0.75
68.5 -20.929001 0.75
68.518997 -20.969 0.75
68.528999 -21.018999 0.75
68.018997 -20.089001 0.75
68.028999 -20.200001 0.73000002
68.119003 -20.259001 0.75
68.119003 -20.309 0.73000002
68.158997 -20.360001 0.73000002
68.179001 -20.419001 0.73000002
68.228996 -20.469 0.73000002
68.25 -20.518999 0.73000002
68.299004 -20.58 0.73000002
68.32 -20.629 0.73000002
68.359001 -20.679001 0.73000002
68.389 -20.729 0.73000002
68.408997 -20.780001 0.73000002
68.440002 -20.83 0.73000002
68.478996 -20.879 0.73000002
68.510002 -20.929001 0.73000002
68.539001 -20.979 0.73000002
68.579002 -21.030001 0.73000002
68.039001 -20.139 0.70999998
68.079002 -20.200001 0.70999998
68.088997 -20.25 0.69999999
68.149002 -20.309 0.69999999
68.168999 -20.360001 0.69999999
68.219002 -20.419001 0.69999999
68.198997 -20.469 0.69999999
68.289001 -20.518999 0.69999999
68.338997 -20.57 0.69999999
68.348999 -20.629 0.69999999
68.389 -20.679001 0.69999999
68.429001 -20.729 0.69999999
68.448997 -20.780001 0.69999999
68.488998 -20.83 0.69999999
68.510002 -20.879 0.69999999
68.549004 -20.929001 0.69999999
68.57 -20.979 0.69999999
68.058998 -20.139 0.68000001
68.109001 -20.200001 0.68000001
68.119003 -20.25 0.67000002
68.168999 -20.309 0.67000002
68.198997 -20.370001 0.67000002
68.238998 -20.419001 0.67000002
68.289001 -20.469 0.68000001
68.32 -20.530001 0.67000002
68.359001 -20.58 0.67000002
68.399002 -20.629 0.68000001
68.389 -20.679001 0.67000002
68.418999 -20.729 0.67000002
68.459 -20.790001 0.67000002
68.5 -20.839001 0.67000002
68.510002 -20.889 0.67000002
68.558998 -20.938999 0.67000002
68.558998 -20.99 0.64999998
68.109001 -20.200001 0.63999999
68.158997 -20.259001 0.64999998
68.198997 -20.32 0.64999998
68.228996 -20.370001 0.63999999
68.289001 -20.419001 0.64999998
68.308998 -20.479 0.63999999
68.289001 -20.530001 0.63999999
68.338997 -20.58 0.63999999
68.408997 -20.639 0.63999999
68.399002 -20.688999 0.63999999
68.448997 -20.74 0.63999999
68.469002 -20.790001 0.63999999
68.510002 -20.839001 0.63999999
68.528999 -20.889 0.62
68.57 -20.938999 0.62
68.558998 -21 0.62
68.139 -20.209 0.62
68.168999 -20.259001 0.62
68.219002 -20.32 0.62
68.260002 -20.370001 0.62
68.238998 -20.429001 0.60000002
68.278999 -20.479 0.60000002
68.32 -20.540001 0.60000002
68.359001 -20.589001 0.60000002
68.379997 -20.639 0.60000002
68.429001 -20.688999 0.60000002
68.459 -20.75 0.60000002
68.5 -20.799 0.60000002
68.510002 -20.849001 0.58999997
68.558998 -20.899 0.60000002
68.598999 -20.950001 0.60000002
68.579002 -21 0.58999997
68.190002 -20.268999 0.58999997
68.209 -20.32 0.58999997
68.228996 -20.379 0.56999999
68.278999 -20.429001 0.56999999
68.308998 -20.49 0.56999999
68.348999 -20.540001 0.56999999
68.408997 -20.589001 0.58999997
68.379997 -20.649 0.56
68.440002 -20.700001 0.56999999
68.488998 -20.75 0.56999999
68.488998 -20.809 0.56
68.539001 -20.860001 0.56
68.579002 -20.91 0.56
68.588997 -20.959 0.56
68.209 -20.268999 0.56
68.25 -20.33 0.56
68.268997 -20.379 0.56
68.299004 -20.438999 0.54000002
68.289001 -20.5 0.52999997
68.399002 -20.549 0.56
68.379997 -20.599001 0.52999997
68.478996 -20.649 0.56
68.469002 -20.709 0.54000002
68.478996 -20.759001 0.52999997
68.528999 -20.809 0.52999997
68.558998 -20.870001 0.52999997
68.588997 -20.919001 0.52999997
68.619003 -20.969 0.52999997
68.088997 -20.219 0.5
68.190002 -20.280001 0.50999999
68.238998 -20.33 0.50999999
68.238998 -20.389 0.5
68.32 -20.450001 0.50999999
68.379997 -20.5 0.52999997
68.369003 -20.559 0.5
68.408997 -20.610001 0.50999999
68.429001 -20.66 0.5
68.518997 -20.709 0.52999997
68.528999 -20.768999 0.50999999
68.528999 -20.82 0.5
68.588997 -20.870001 0.5
68.598999 -20.929001 0.5
68.609001 -20.979 0.5
68.639 -21.030001 0.47999999
68.190002 -20.290001 0.47999999
68.25 -20.339001 0.47999999
68.308998 -20.399 0.5
68.359001 -20.450001 0.5
68.379997 -20.509001 0.47999999
68.379997 -20.57 0.47999999
68.429001 -20.620001 0.47999999
68.448997 -20.669001 0.47999999
68.510002 -20.729 0.47999999
68.5 -20.780001 0.46000001
68.528999 -20.839001 0.46000001
68.588997 -20.889 0.47999999
68.57 -20.938999 0.44999999
68.619003 -21 0.44999999
68.639 -21.049 0.44999999
68.228996 -20.299 0.44999999
68.260002 -20.349001 0.44999999
68.308998 -20.41 0.44999999
68.289001 -20.469 0.43000001
68.389 -20.518999 0.44999999
68.389 -20.58 0.44999999
68.448997 -20.629 0.44999999
68.478996 -20.688999 0.44999999
68.488998 -20.74 0.43000001
68.518997 -20.799 0.43000001
68.549004 -20.849001 0.43000001
68.588997 -20.899 0.43000001
68.609001 -20.959 0.41999999
68.629997 -21.009001 0.41999999
68.679001 -21.059 0.41999999
68.228996 -20.309 0.41999999
68.268997 -20.360001 0.41999999
68.260002 -20.479 0.38999999
68.329002 -20.540001 0.38999999
68.379997 -20.589001 0.40000001
68.459 -20.639 0.41999999
68.478996 -20.700001 0.40000001
68.510002 -20.75 0.40000001
68.5 -20.809 0.38999999
68.518997 -20.870001 0.38999999
68.609001 -20.91 0.40000001
68.609001 -20.969 0.38999999
68.639 -21.018999 0.38999999
68.668999 -21.08 0.38999999
68.219002 -20.32 0.37
68.289001 -20.429001 0.37
68.348999 -20.49 0.37
68.359001 -20.549 0.37
68.399002 -20.599001 0.37
68.440002 -20.66 0.37
68.488998 -20.709 0.37
68.518997 -20.768999 0.37
68.539001 -20.83 0.37
68.57 -20.879 0.37
68.579002 -20.929001 0.34999999
68.649002 -20.99 0.37
68.639 -21.040001 0.34
68.690002 -21.089001 0.34999999
68.260002 -20.389 0.34
68.308998 -20.450001 0.34
68.348999 -20.5 0.34
68.389 -20.559 0.34
68.408997 -20.620001 0.34
68.469002 -20.669001 0.34
68.478996 -20.729 0.34
68.528999 -20.780001 0.34
68.539001 -20.839001 0.31999999
68.579002 -20.889 0.31999999
68.609001 -20.950001 0.31999999
68.619003 -21 0.31
68.668999 -21.059 0.31999999
68.679001 -21.110001 0.31
68.129997 -20.339001 0.28
68.268997 -20.399 0.31
68.329002 -20.450001 0.31
68.359001 -20.509001 0.31
68.369003 -20.57 0.31
68.429001 -20.620001 0.31
68.459 -20.679001 0.31
68.478996 -20.74 0.28999999
68.539001 -20.790001 0.31
68.558998 -20.849001 0.28999999
68.579002 -20.91 0.28999999
68.639 -20.959 0.31
68.639 -21.018999 0.28
68.679001 -21.07 0.28
68.690002 -21.129 0.28
68.299004 -20.41 0.28
68.299004 -20.469 0.28
68.299004 -20.530001 0.25
68.399002 -20.589001 0.28
68.440002 -20.639 0.28
68.448997 -20.700001 0.25999999
68.469002 -20.759001 0.25999999
68.539001 -20.809 0.28
68.588997 -20.870001 0.28
68.588997 -20.929001 0.25999999
68.609001 -20.979 0.25
68.658997 -21.040001 0.25
68.698997 -21.089001 0.25
68.719002 -21.149 0.25
68.278999 -20.429001 0.25
67.988998 -20.518999 0.14
68.308998 -20.549 0.23
68.408997 -20.610001 0.25
68.469002 -20.66 0.25
68.5 -20.719 0.25
68.539001 -20.768999 0.25
68.549004 -20.83 0.23
68.558998 -20.889 0.23
68.588997 -20.950001 0.23
68.639 -21 0.23
68.658997 -21.059 0.23
68.698997 -21.120001 0.23
68.698997 -21.169001 0.20999999
68.190002 -20.389 0.2
68.299004 -20.450001 0.20999999
68.198997 -20.518999 0.17
68.379997 -20.559 0.20999999
68.32 -20.629 0.18000001
68.469002 -20.679001 0.23
68.459 -20.74 0.2
68.539001 -20.790001 0.20999999
68.579002 -20.849001 0.20999999
68.579002 -20.91 0.2
68.629997 -20.959 0.2
68.639 -21.018999 0.2
68.709 -21.07 0.2
68.679001 -21.139 0.18000001
68.158997 -20.41 0.15000001
68.289001 -20.459 0.18000001
68.289001 -20.518999 0.17
68.369003 -20.58 0.18000001
68.308998 -20.649 0.14
68.469002 -20.688999 0.18000001
68.478996 -20.759001 0.17
68.539001 -20.809 0.18000001
68.539001 -20.870001 0.16
68.558998 -20.929001 0.16
68.619003 -20.979 0.16
68.619003 -21.049 0.15000001
68.690002 -21.099001 0.16
68.698997 -21.16 0.15000001
68.07 -20.429001 0.090000004
68.289001 -20.479 0.15000001
68.348999 -20.540001 0.15000001
68.329002 -20.599001 0.14
68.329002 -20.669001 0.12
68.478996 -20.709 0.15000001
68.478996 -20.768999 0.14
68.549004 -20.83 0.15000001
68.598999 -20.879 0.15000001
68.579002 -20.950001 0.14
68.598999 -21.009001 0.12
68.629997 -21.07 0.12
68.649002 -21.120001 0.11
68.219002 -20.438999 0.1
68.289001 -20.5 0.11
68.348999 -20.549 0.12
68.379997 -20.610001 0.11
68.448997 -20.669001 0.12
68.5 -20.729 0.14
68.488998 -20.790001 0.11
68.539001 -20.849001 0.11
68.539001 -20.91 0.1
68.619003 -20.959 0.11
68.619003 -21.030001 0.1
68.649002 -21.08 0.090000004
68.649002 -21.149 0.079999998
68.289001 -20.450001 0.090000004
68.299004 -20.509001 0.079999998
68.338997 -20.58 0.079999998
68.408997 -20.629 0.090000004
68.488998 -20.688999 0.1
68.518997 -20.75 0.1
68.5 -20.809 0.079999998
68.528999 -20.870001 0.079999998
68.549004 -20.929001 0.07
68.549004 -21 0.050000001
68.639 -21.049 0.07
68.629997 -21.110001 0.050000001
68.289001 -20.469 0.07
68.32 -20.530001 0.07
68.389 -20.589001 0.07
68.369003 -20.66 0.039999999
68.469002 -20.709 0.07
68.478996 -20.768999 0.050000001
68.57 -20.83 0.07
68.528999 -20.899 0.039999999
68.558998 -20.959 0.029999999
68.278999 -20.49 0.029999999
68.379997 -20.540001 0.039999999
68.469002 -20.729 0.029999999
68.549004 -20.849001 0.029999999
67.639 -21.58 0.63999999
67.058998 -21.629 0.73000002
67.510002 -21.25 1.04
67.129997 -21.299 1.0599999
66.869003 -21.669001 0.81999999
67.789001 -21.479 0.67000002
67.719002 -21.41 0.69999999
67.478996 -21.438999 0.75999999
67.109001 -21.58 0.85000002
67.709 -21.018999 1.1799999
67.039001 -21.49 0.88999999
67.198997 -21.349001 1.25
67.088997 -21.290001 1.29
66.929001 -21.559 0.75
