# .PCD v0.7 - Point Cloud Data file format
VERSION 0.7
FIELDS x y z
SIZE 4 4 4
TYPE F F F
COUNT 1 1 1
WIDTH 237
HEIGHT 1
VIEWPOINT 0 0 0 1 0 0 0
POINTS 237
DATA ascii
72.558998 -18.879 0.81
72.679001 -18.938999 0.40000001
72.418999 -18.83 0.75999999
71.829002 -19.059 0.79000002
72.049004 -19.188999 0.77999997
71.838997 -18.91 0.41999999
72.25 -18.899 0.25999999
71.75 -19.08 0.75
71.760002 -19.08 0.73000002
71.789001 -19.149 0.75
71.75 -19.07 0.63999999
71.75 -19.049 0.58999997
71.738998 -19.030001 0.52999997
71.738998 -19.049 0.50999999
71.760002 -19.08 0.5
71.859001 -19.089001 0.83999997
71.838997 -19.018999 0.75
71.829002 -19.009001 0.69999999
71.838997 -19.030001 0.68000001
71.859001 -19.08 0.69999999
71.838997 -19.040001 0.58999997
71.82 -18.979 0.5
71.848999 -19.049 0.52999997
71.859001 -19.08 0.5
71.899002 -18.938999 0.79000002
71.908997 -18.950001 0.75999999
71.889 -18.91 0.69999999
71.908997 -18.959 0.69999999
71.918999 -18.979 0.68000001
71.929001 -19 0.67000002
71.918999 -18.979 0.62
71.908997 -18.950001 0.56
71.929001 -18.99 0.50999999
72.018997 -18.950001 0.87
72.010002 -18.929001 0.81999999
71.988998 -18.899 0.75999999
71.948997 -18.809 0.67000002
71.978996 -18.879 0.68000001
72 -18.919001 0.67000002
71.988998 -18.889 0.62
71.988998 -18.879 0.56999999
71.988998 -18.899 0.54000002
72 -18.91 0.52999997
72 -18.91 0.47999999
72 -18.929001 0.46000001
72.079002 -18.870001 0.77999997
72.088997 -18.889 0.75
72.079002 -18.860001 0.69999999
72.088997 -18.879 0.68000001
72.058998 -18.83 0.60000002
72.07 -18.83 0.56999999
72.07 -18.849001 0.56
72.079002 -18.860001 0.52999997
72.079002 -18.870001 0.5
72.088997 -18.889 0.47999999
72.139 -18.759001 0.69999999
72.158997 -18.809 0.69999999
72.149002 -18.790001 0.62
72.149002 -18.790001 0.56999999
72.158997 -18.799 0.56
72.158997 -18.799 0.52999997
72.158997 -18.809 0.47999999
72.168999 -18.839001 0.47999999
72.238998 -18.75 0.75999999
72.228996 -18.74 0.73000002
72.278999 -18.83 0.75999999
72.238998 -18.75 0.64999998
72.260002 -18.799 0.67000002
72.260002 -18.799 0.62
72.238998 -18.759001 0.56
72.260002 -18.790001 0.56
72.25 -18.768999 0.5
72.260002 -18.809 0.5
72.338997 -18.74 0.79000002
72.308998 -18.669001 0.69999999
72.359001 -18.780001 0.75999999
72.32 -18.700001 0.64999998
72.329002 -18.709 0.63999999
72.348999 -18.75 0.63999999
72.348999 -18.768999 0.62
72.348999 -18.759001 0.56999999
72.359001 -18.780001 0.56
72.359001 -18.790001 0.52999997
72.429001 -18.709 0.75
72.429001 -18.709 0.70999998
72.408997 -18.669001 0.63999999
72.418999 -18.688999 0.62
72.418999 -18.688999 0.58999997
72.429001 -18.719 0.56999999
72.228996 -18.889 0.2
72.058998 -18.83 0.63999999
72.010002 -18.99 0.87
71.75 -19.089001 0.77999997
72.058998 -18.938999 0.87
71.899002 -18.99 0.81
71.82 -19.040001 0.75999999
71.719002 -19.089001 0.73000002
72.139 -18.879 0.87
72 -18.938999 0.81
71.948997 -18.99 0.77999997
71.808998 -19.040001 0.73000002
71.75 -19.099001 0.69999999
72.209 -18.83 0.85000002
72.088997 -18.879 0.81
72.058998 -18.929001 0.79000002
71.869003 -18.99 0.73000002
71.908997 -19.040001 0.73000002
71.760002 -19.099001 0.67000002
72.139 -18.83 0.79000002
72.109001 -18.879 0.77999997
72.079002 -18.929001 0.75
71.959 -18.979 0.70999998
71.869003 -19.040001 0.67000002
71.768997 -19.099001 0.63999999
72.209 -18.780001 0.79000002
72.219002 -18.83 0.77999997
72.168999 -18.879 0.75999999
72.07 -18.929001 0.73000002
71.940002 -18.99 0.67000002
71.879997 -19.040001 0.63999999
71.709 -19.110001 0.56999999
72.289001 -18.780001 0.77999997
72.198997 -18.83 0.75
72.190002 -18.879 0.73000002
72.079002 -18.938999 0.68000001
72 -19 0.64999998
71.899002 -19.049 0.62
72.379997 -18.729 0.79000002
72.338997 -18.780001 0.75999999
72.209 -18.839001 0.70999998
72.098999 -18.889 0.67000002
72.088997 -18.938999 0.67000002
71.940002 -19.009001 0.60000002
71.869003 -19.07 0.56
72.238998 -18.790001 0.69999999
72.190002 -18.839001 0.68000001
72.07 -18.899 0.63999999
72 -18.959 0.58999997
71.940002 -19.018999 0.56
71.929001 -19.07 0.56
72.399002 -18.74 0.73000002
72.260002 -18.799 0.67000002
72.149002 -18.849001 0.63999999
72.098999 -18.91 0.60000002
72.018997 -18.969 0.56999999
71.929001 -19.030001 0.52999997
71.838997 -19.089001 0.5
72.429001 -18.688999 0.73000002
72.329002 -18.74 0.67000002
72.278999 -18.799 0.64999998
72.179001 -18.860001 0.60000002
72.079002 -18.919001 0.56
72.010002 -18.979 0.52999997
71.929001 -19.040001 0.5
72.478996 -18.688999 0.69999999
72.399002 -18.75 0.67000002
72.289001 -18.799 0.62
72.190002 -18.870001 0.56999999
72.098999 -18.929001 0.52999997
72.010002 -18.99 0.5
71.908997 -19.049 0.44999999
72.469002 -18.688999 0.67000002
72.389 -18.75 0.62
72.268997 -18.809 0.56999999
72.179001 -18.870001 0.52999997
72.098999 -18.938999 0.5
71.978996 -19 0.44999999
71.879997 -19.07 0.40000001
72.459 -18.700001 0.62
72.488998 -18.75 0.62
72.238998 -18.82 0.52999997
72.190002 -18.879 0.5
72.119003 -18.938999 0.46000001
72.039001 -19.009001 0.43000001
71.869003 -19.08 0.37
71.869003 -19.139 0.34999999
72.389 -18.709 0.56
72.379997 -18.768999 0.54000002
72.299004 -18.83 0.50999999
72.139 -18.899 0.44999999
72.109001 -18.959 0.41999999
71.969002 -19.030001 0.37
71.948997 -19.089001 0.34999999
71.899002 -19.149 0.31999999
72.389 -18.719 0.52999997
72.379997 -18.780001 0.5
72.278999 -18.839001 0.46000001
72.158997 -18.91 0.41999999
72.058998 -18.979 0.37
72.039001 -19.040001 0.34999999
72.049004 -19.089001 0.34
71.908997 -19.169001 0.28
72.440002 -18.719 0.5
72.329002 -18.790001 0.44999999
72.209 -18.860001 0.40000001
72.168999 -18.919001 0.38999999
72.109001 -18.979 0.34
72.119003 -19.040001 0.34
72.039001 -19.110001 0.31
72.399002 -18.74 0.44999999
72.338997 -18.799 0.41999999
72.278999 -18.870001 0.38999999
72.219002 -18.929001 0.34999999
72.198997 -18.99 0.34
72.158997 -19.049 0.31
72 -19.129 0.25
72.389 -18.759001 0.40000001
72.308998 -18.82 0.37
72.278999 -18.879 0.34
72.289001 -18.938999 0.34
72.198997 -19.009001 0.28999999
72.088997 -19.08 0.25
72.488998 -18.700001 0.41999999
72.379997 -18.768999 0.37
72.359001 -18.83 0.34
72.389 -18.879 0.34
72.338997 -18.950001 0.31
72.190002 -19.030001 0.25
71.929001 -19.129 0.15000001
72.478996 -18.719 0.37
72.478996 -18.780001 0.37
72.448997 -18.839001 0.34
72.389 -18.899 0.31
72.25 -18.979 0.25
72.088997 -19.07 0.18000001
72.518997 -18.790001 0.31999999
72.469002 -18.860001 0.31
72.359001 -18.929001 0.25
72.179001 -19.018999 0.18000001
72.539001 -18.799 0.28999999
72.448997 -18.870001 0.25
72.289001 -18.959 0.18000001
72.5 -18.83 0.25
72.338997 -18.91 0.17
72.429001 -18.860001 0.17
72.440002 -18.82 0.14
71.908997 -18.849001 0.23
