# .PCD v0.7 - Point Cloud Data file format
VERSION 0.7
FIELDS x y z
SIZE 4 4 4
TYPE F F F
COUNT 1 1 1
WIDTH 75
HEIGHT 1
VIEWPOINT 0 0 0 1 0 0 0
POINTS 75
DATA ascii
69.57 -16.059 0.2
69.789001 -16.200001 0.41999999
69.829002 -16.75 0.52999997
70.049004 -16.879 0.56999999
70.799004 -15.419 0.18000001
69.778999 -16.549 0.44999999
70.039001 -15.049 0.12
71.379997 -16.259001 0.37
71.190002 -16.030001 0.63999999
71.209 -16.08 0.52999997
71.149002 -15.939 0.44999999
71.098999 -15.83 0.34999999
71.058998 -15.75 0.25999999
70.988998 -15.58 -0.0099999998
71.088997 -16 0.63999999
71.028999 -15.879 0.56
70.959 -15.719 0.47999999
70.879997 -15.53 0.41999999
70.808998 -15.37 0.34
70.848999 -15.469 0.23
70.838997 -15.439 0.14
70.829002 -15.429 0.029999999
70.838997 -15.459 -0.07
71.018997 -16.059 0.73000002
71 -16.018999 0.63999999
70.738998 -15.429 0.43000001
70.668999 -15.269 0.37
70.639 -15.2 0.28
70.609001 -15.139 0.2
70.619003 -15.149 0.090000004
70.679001 -15.29 -0.029999999
70.429001 -15.139 0.40000001
70.448997 -15.189 0.28999999
70.399002 -15.07 0.23
70.329002 -15.12 0.40000001
70.379997 -15.229 0.28
70.338997 -15.16 0.2
70.260002 -15.179 0.38999999
70.278999 -15.209 0.28999999
70.25 -15.139 0.2
70.098999 -15.009 0.44999999
70.139 -15.099 0.31999999
70.119003 -15.07 0.23
70.058998 -14.929 0.16
70.058998 -14.929 0.07
70.119003 -15.07 -0.059999999
70.088997 -15.219 0.5
70.058998 -15.139 0.41999999
70.098999 -15.229 0.31
70.049004 -15.129 0.23
70.028999 -15.08 0.14
69.978996 -14.969 0.07
69.908997 -16.768999 0.69999999
69.588997 -16.040001 0.34
69.859001 -16.669001 0.56
69.738998 -16.379 0.37
69.709 -16.309 0.28999999
69.609001 -16.099001 0.14
69.658997 -16.209 0.14
69.629997 -16.129 0.039999999
69.658997 -16.209 0.029999999
69.668999 -16.229 -0.02
69.719002 -16.099001 0.5
69.978996 -16.700001 0.69999999
70.028999 -16.809 0.69999999
70.018997 -16.780001 0.63999999
70 -16.75 0.56
69.978996 -16.700001 0.5
70.018997 -16.549 0.69999999
71.369003 -16.089001 0.52999997
71.418999 -15.959 0.47999999
71.528999 -16.209 0.56
69.969002 -16.83 0.34999999
71.629997 -17.149 0.79000002
71.690002 -17.179001 0.63999999
