# .PCD v0.7 - Point Cloud Data file format
VERSION 0.7
FIELDS x y z
SIZE 4 4 4
TYPE F F F
COUNT 1 1 1
WIDTH 287
HEIGHT 1
VIEWPOINT 0 0 0 1 0 0 0
POINTS 287
DATA ascii
65.579002 -17.620001 0.25
65.799004 -17.759001 0.62
65.018997 -17.889 0.28
65.889 -17.479 0.2
66.058998 -17.57 0.5
65.299004 -17.899 0.25
65.448997 -17.979 0.60000002
65.619003 -17.849001 0.43000001
64.978996 -18.120001 0.46000001
65.179001 -17.959 0.46000001
65.389 -17.799 0.46000001
66.07 -17.780001 0.41999999
66.379997 -17.5 0.46000001
66.389 -17.509001 0.37
66.348999 -17.419001 0.2
66.32 -17.360001 0.1
66.32 -17.370001 -0
66.338997 -17.620001 0.44999999
66.308998 -17.530001 0.37
66.299004 -17.518999 0.28
66.25 -17.41 0.2
66.209 -17.33 0.12
66.228996 -17.370001 0.0099999998
66.209 -17.33 -0.07
66.238998 -17.58 0.46000001
66.209 -17.530001 0.38999999
66.209 -17.540001 0.28
66.158997 -17.419001 0.20999999
66.109001 -17.32 0.14
66.109001 -17.32 0.039999999
66.109001 -17.32 -0.050000001
66.149002 -17.620001 0.46000001
66.088997 -17.479 0.40000001
66.119003 -17.549 0.28
66.098999 -17.509001 0.2
66.010002 -17.309 0.14
65.978996 -17.25 0.07
66.028999 -17.349001 -0.050000001
66.088997 -17.679001 0.46000001
66 -17.49 0.40000001
66.058998 -17.629 0.28
66 -17.479 0.20999999
65.918999 -17.309 0.15000001
65.918999 -17.33 0.050000001
65.940002 -17.360001 -0.029999999
66.058998 -17.82 0.54000002
65.959 -17.610001 0.5
65.929001 -17.530001 0.41999999
65.889 -17.450001 0.34
65.879997 -17.438999 0.23
65.838997 -17.339001 0.16
65.848999 -17.370001 0.07
65.889 -17.459 -0.050000001
65.879997 -17.639 0.5
65.879997 -17.629 0.38999999
65.82 -17.509001 0.31999999
65.808998 -17.49 0.23
65.75 -17.349001 0.17
65.75 -17.360001 0.07
65.799004 -17.479 -0.050000001
65.848999 -17.780001 0.46000001
65.778999 -17.620001 0.40000001
65.75 -17.549 0.31999999
65.738998 -17.540001 0.23
65.668999 -17.389 0.17
65.668999 -17.389 0.07
65.690002 -17.438999 -0.029999999
65.760002 -17.790001 0.47999999
65.690002 -17.629 0.41999999
65.639 -17.540001 0.34
65.649002 -17.559 0.23
65.588997 -17.419001 0.17
65.588997 -17.419001 0.07
65.588997 -17.419001 -0.0099999998
65.690002 -17.839001 0.46000001
65.629997 -17.709 0.38999999
65.549004 -17.540001 0.34
65.558998 -17.559 0.23
65.518997 -17.479 0.15000001
65.510002 -17.450001 0.07
65.518997 -17.469 -0.02
65.579002 -17.82 0.46000001
65.510002 -17.669001 0.40000001
65.5 -17.629 0.31
65.518997 -17.679001 0.2
65.440002 -17.518999 0.14
65.440002 -17.509001 0.050000001
65.440002 -17.509001 -0.029999999
65.539001 -17.919001 0.44999999
65.440002 -17.719 0.38999999
65.469002 -17.780001 0.28
65.429001 -17.700001 0.20999999
65.379997 -17.589001 0.14
65.369003 -17.559 0.050000001
65.379997 -17.599001 -0.050000001
65.440002 -17.919001 0.46000001
65.379997 -17.790001 0.38999999
65.399002 -17.83 0.28
65.308998 -17.629 0.23
65.299004 -17.620001 0.14
65.308998 -17.639 0.039999999
65.32 -17.669001 -0.050000001
65.369003 -17.99 0.46000001
65.289001 -17.809 0.40000001
65.278999 -17.790001 0.31
65.260002 -17.75 0.23
65.228996 -17.700001 0.14
65.260002 -17.75 0.029999999
65.238998 -17.719 -0.050000001
65.299004 -18.059 0.46000001
65.25 -17.929001 0.38999999
65.268997 -18 0.28
65.238998 -17.929001 0.2
65.168999 -17.768999 0.14
65.168999 -17.759001 0.039999999
65.158997 -17.759001 -0.029999999
65.238998 -18.120001 0.44999999
65.198997 -18.030001 0.37
65.198997 -18.040001 0.28
65.119003 -17.870001 0.20999999
65.098999 -17.83 0.12
65.098999 -17.83 0.029999999
65.098999 -17.83 -0.059999999
65.179001 -18.209 0.43000001
65.158997 -18.149 0.34
65.168999 -18.169001 0.25
65.039001 -17.889 0.20999999
65.07 -17.950001 0.1
65.07 -17.979 -0
65.098999 -18.25 0.43000001
65.058998 -18.16 0.25999999
65.010002 -18.049 0.2
65.010002 -18.059 0.090000004
65.018997 -18.059 -0
66.690002 -17.509001 0.40000001
66.558998 -17.438999 0.69999999
66.539001 -17.399 0.62
66.588997 -17.5 0.50999999
66.598999 -17.540001 0.41999999
66.558998 -17.450001 0.34
66.549004 -17.419001 0.25
66.518997 -17.349001 0.18000001
66.528999 -17.379 0.079999998
66.478996 -17.459 0.70999998
66.459 -17.419001 0.63999999
66.448997 -17.41 0.54000002
66.448997 -17.41 0.44999999
66.459 -17.438999 0.34999999
66.469002 -17.450001 0.25999999
66.418999 -17.349001 0.2
66.418999 -17.349001 0.1
66.379997 -17.469 0.73000002
66.369003 -17.438999 0.63999999
66.418999 -17.559 0.52999997
66.418999 -17.57 0.43000001
66.379997 -17.469 0.37
66.379997 -17.479 0.25999999
66.338997 -17.389 0.2
66.338997 -17.389 0.1
66.379997 -17.479 -0
66.299004 -17.5 0.73000002
66.289001 -17.469 0.63999999
66.299004 -17.5 0.54000002
66.289001 -17.479 0.46000001
66.289001 -17.479 0.37
66.289001 -17.479 0.28
66.260002 -17.419001 0.2
66.25 -17.399 0.11
66.289001 -17.5 -0
66.209 -17.518999 0.75
66.198997 -17.49 0.64999998
66.179001 -17.450001 0.56999999
66.209 -17.518999 0.47999999
66.198997 -17.509001 0.38999999
66.209 -17.540001 0.28
66.168999 -17.450001 0.20999999
66.168999 -17.429001 0.14
66.190002 -17.5 0.029999999
66.119003 -17.540001 0.56999999
66.139 -17.589001 0.47999999
66.129997 -17.58 0.38999999
66.119003 -17.540001 0.31
66.098999 -17.5 0.20999999
66.079002 -17.459 0.14
66.098999 -17.509001 0.029999999
66.049004 -17.610001 0.75
66.039001 -17.58 0.67000002
66.028999 -17.559 0.58999997
66.049004 -17.610001 0.47999999
66.07 -17.66 0.38999999
66.039001 -17.599001 0.31
66.018997 -17.559 0.23
65.988998 -17.49 0.14
66.010002 -17.530001 0.050000001
65.969002 -17.66 0.75999999
65.948997 -17.620001 0.68000001
65.940002 -17.599001 0.60000002
65.978996 -17.688999 0.5
65.978996 -17.700001 0.38999999
65.948997 -17.620001 0.31999999
65.940002 -17.599001 0.23
65.899002 -17.518999 0.16
65.940002 -17.620001 0.050000001
65.978996 -17.709 -0.059999999
65.869003 -17.66 0.69999999
65.848999 -17.620001 0.60000002
65.908997 -17.768999 0.47999999
65.899002 -17.74 0.40000001
65.869003 -17.669001 0.34
65.859001 -17.649 0.25
65.82 -17.549 0.17
65.899002 -17.74 0.039999999
65.789001 -17.700001 0.69999999
65.778999 -17.679001 0.62
65.82 -17.780001 0.5
65.799004 -17.729 0.41999999
65.778999 -17.700001 0.34
65.789001 -17.719 0.25
65.75 -17.629 0.17
65.829002 -17.809 0.029999999
65.709 -17.74 0.69999999
65.698997 -17.709 0.62
65.738998 -17.83 0.5
65.698997 -17.719 0.43000001
65.709 -17.74 0.34
65.719002 -17.768999 0.25
65.668999 -17.66 0.17
65.75 -17.849001 0.039999999
65.629997 -17.799 0.69999999
65.629997 -17.790001 0.62
65.668999 -17.889 0.5
65.639 -17.839001 0.41999999
65.629997 -17.809 0.34
65.629997 -17.799 0.25
65.598999 -17.729 0.17
65.629997 -17.809 -0.02
65.549004 -17.860001 0.69999999
65.528999 -17.809 0.62
65.609001 -18 0.5
65.588997 -17.950001 0.41999999
65.539001 -17.849001 0.34
65.549004 -17.870001 0.25
65.5 -17.74 0.18000001
65.469002 -17.889 0.69999999
65.469002 -17.889 0.62
65.5 -17.959 0.5
65.5 -17.979 0.41999999
65.469002 -17.919001 0.34
65.459 -17.889 0.25
65.429001 -17.799 0.18000001
65.459 -17.889 -0.0099999998
65.399002 -17.959 0.69999999
65.389 -17.929001 0.60000002
65.429001 -18.030001 0.5
65.408997 -17.99 0.41999999
65.389 -17.950001 0.34
65.399002 -17.959 0.25
65.348999 -17.849001 0.17
65.359001 -17.879 0.07
65.389 -17.950001 -0.02
65.308998 -17.99 0.62
65.338997 -18.07 0.5
65.338997 -18.059 0.41999999
65.308998 -18 0.34
65.308998 -18 0.25
65.278999 -17.929001 0.17
65.278999 -17.929001 0.079999998
65.299004 -17.99 -0.02
65.238998 -18.07 0.52999997
65.219002 -18.030001 0.43000001
65.228996 -18.049 0.34
65.238998 -18.08 0.25
65.198997 -17.979 0.17
65.198997 -17.99 0.079999998
65.198997 -17.99 -0
65.168999 -18.16 0.41999999
65.158997 -18.139 0.31999999
65.149002 -18.099001 0.25
65.129997 -18.049 0.16
65.119003 -18.040001 0.079999998
65.139 -18.089001 -0.02
65.079002 -18.16 0.58999997
65.098999 -18.219 0.40000001
65.088997 -18.200001 0.31
65.079002 -18.169001 0.23
65.049004 -18.089001 0.16
65.049004 -18.110001 0.07
