# .PCD v0.7 - Point Cloud Data file format
VERSION 0.7
FIELDS x y z
SIZE 4 4 4
TYPE F F F
COUNT 1 1 1
WIDTH 93
HEIGHT 1
VIEWPOINT 0 0 0 1 0 0 0
POINTS 93
DATA ascii
65.808998 -20.018999 0.40000001
66.028999 -20.149 0.81
65.598999 -19.469 0.52999997
65.768997 -20.018999 0.47999999
65.929001 -20.099001 0.81999999
66.039001 -19.969 1.14
66.028999 -20.129 0.79000002
65.558998 -19.679001 0.63999999
65.778999 -19.518999 1.09
65.948997 -19.82 1.14
66.049004 -20.08 1.15
65.959 -19.49 1.03
65.940002 -19.438999 0.92000002
65.598999 -19.33 0.63999999
66.109001 -19.889 1.25
66.088997 -19.839001 1.17
66.088997 -19.83 1.0599999
66.028999 -19.950001 1.26
66.079002 -20.08 1.14
66.039001 -19.99 1.0599999
65.879997 -19.839001 0.95999998
65.609001 -19.57 0.67000002
65.690002 -19.759001 0.70999998
65.768997 -19.709 0.75
65.768997 -19.700001 0.69999999
65.728996 -19.620001 0.62
65.649002 -19.429001 0.47999999
65.690002 -19.530001 0.47999999
65.709 -19.559 0.43000001
65.719002 -19.589001 0.40000001
65.719002 -19.599001 0.34999999
65.728996 -19.610001 0.31
65.709 -19.57 0.25
65.719002 -19.589001 0.2
65.698997 -19.549 0.12
65.838997 -19.629 0.75
65.829002 -19.599001 0.68000001
65.829002 -19.599001 0.63999999
65.879997 -19.709 0.63999999
65.918999 -19.809 0.63999999
65.908997 -19.799 0.58999997
65.969002 -19.929001 0.58999997
65.969002 -19.938999 0.56
66 -20.009001 0.54000002
66 -20.009001 0.5
66.039001 -20.089001 0.5
66.049004 -20.110001 0.46000001
65.929001 -19.599001 0.83999997
66.028999 -19.839001 0.81
65.959 -19.66 0.68000001
65.978996 -19.719 0.67000002
66.079002 -19.938999 0.70999998
66.079002 -19.950001 0.68000001
66.109001 -20.018999 0.67000002
66.158997 -20.120001 0.67000002
66.190002 -20.209 0.67000002
66.209 -20.25 0.64999998
66.25 -20.33 0.64999998
66.260002 -20.370001 0.62
66.268997 -20.389 0.58999997
66.198997 -19.969 0.81
66.158997 -19.889 0.70999998
66.389 -20.419001 0.81
66.399002 -20.438999 0.77999997
66.359001 -20.360001 0.68000001
66.418999 -20.5 0.73000002
66.518997 -20.479 0.94999999
66.510002 -20.450001 0.88999999
66.018997 -19.938999 0.56
65.959 -19.809 0.52999997
66.039001 -19.879 0.52999997
66.049004 -19.950001 0.52999997
66.119003 -20.018999 0.52999997
66.129997 -20.08 0.52999997
65.969002 -19.809 0.5
66.039001 -19.879 0.5
66.049004 -19.950001 0.47999999
66.07 -20.009001 0.47999999
66.018997 -19.82 0.46000001
66.018997 -19.889 0.44999999
66.028999 -19.950001 0.44999999
66.07 -20.018999 0.44999999
65.899002 -19.879 0.38999999
66.07 -19.959 0.41999999
66.289001 -20.509001 1.0599999
66.219002 -20.419001 1.09
66.209 -20.259001 1.12
66.158997 -20.16 1.14
66.088997 -20.08 1.17
66.039001 -19.959 1.2
65.889 -19.938999 1.2
66.010002 -19.709 1.17
65.829002 -19.700001 1.2
