# .PCD v0.7 - Point Cloud Data file format
VERSION 0.7
FIELDS x y z
SIZE 4 4 4
TYPE F F F
COUNT 1 1 1
WIDTH 829
HEIGHT 1
VIEWPOINT 0 0 0 1 0 0 0
POINTS 829
DATA ascii
72.25 -18.179001 0.85000002
71.598999 -18.370001 0.75999999
71.940002 -18.549 0.81999999
71.469002 -18.649 0.73000002
71.838997 -17.950001 1.01
71.299004 -18.179001 1.0700001
71.528999 -18.309 0.62
71.75 -18.438999 0.77999997
71.978996 -18.57 0.77999997
71.379997 -18.799 0.75999999
71.658997 -18.41 0.75
71.969002 -18.530001 0.81
71.418999 -18 0.70999998
71.25 -18.309 0.70999998
71.658997 -17.99 0.67000002
71.408997 -18.66 0.73000002
71.609001 -18.49 0.75
71.808998 -18.33 0.73000002
72.010002 -18.169001 0.75
72.429001 -18.049 0.50999999
72.329002 -17.82 0.43000001
72.260002 -17.860001 0.67000002
72.32 -18.209 0.75
72.079002 -17.649 0.70999998
71.139 -18.639 0.79000002
71.25 -18.649 0.94999999
71.25 -18.629 0.88999999
71.289001 -18.74 0.92000002
71.299004 -18.759001 0.89999998
71.289001 -18.74 0.85000002
71.329002 -18.82 0.87
71.338997 -18.849001 0.87
71.129997 -18.129 1.0700001
71.179001 -18.25 0.75999999
71.209 -18.299 0.75999999
71.278999 -18.479 0.83999997
71.299004 -18.509001 0.81
71.348999 -18.629 0.85000002
71.338997 -18.599001 0.81
71.418999 -18.799 0.88999999
71.369003 -18.679001 0.77999997
71.379997 -18.700001 0.70999998
71.209 -18.07 1.0700001
71.260002 -18.200001 0.92000002
71.268997 -18.209 0.88999999
71.278999 -18.229 0.87
71.278999 -18.229 0.81999999
71.278999 -18.25 0.79000002
71.289001 -18.268999 0.77999997
71.369003 -18.429001 0.83999997
71.359001 -18.419001 0.79000002
71.399002 -18.5 0.81
71.418999 -18.559 0.81
71.448997 -18.610001 0.81
71.478996 -18.688999 0.81
71.510002 -18.75 0.81999999
71.549004 -18.839001 0.85000002
71.338997 -18.139 0.92000002
71.359001 -18.188999 0.89999998
71.379997 -18.219 0.88999999
71.369003 -18.209 0.83999997
71.369003 -18.209 0.81
71.369003 -18.209 0.75999999
71.418999 -18.33 0.79000002
71.469002 -18.429001 0.81999999
71.488998 -18.469 0.81
71.518997 -18.540001 0.81999999
71.539001 -18.58 0.81
71.57 -18.649 0.81999999
71.539001 -18.589001 0.75
71.609001 -18.75 0.81999999
71.348999 -17.929001 1.17
71.399002 -18.040001 1.12
71.369003 -17.969 0.81
71.440002 -18.129 0.87
71.448997 -18.149 0.83999997
71.448997 -18.16 0.81
71.469002 -18.179001 0.77999997
71.528999 -18.32 0.81999999
71.528999 -18.33 0.79000002
71.57 -18.41 0.81
71.598999 -18.49 0.81999999
71.609001 -18.509001 0.79000002
71.649002 -18.589001 0.81999999
71.668999 -18.639 0.81
71.448997 -17.919001 1.0700001
71.510002 -18.049 1.1
71.528999 -18.08 0.77999997
71.539001 -18.110001 0.75999999
71.609001 -18.280001 0.83999997
71.629997 -18.309 0.81
71.649002 -18.360001 0.81
71.690002 -18.450001 0.83999997
71.709 -18.509001 0.83999997
71.719002 -18.518999 0.81
71.738998 -18.58 0.81
71.760002 -18.620001 0.81
71.588997 -17.99 1.14
71.609001 -18.040001 1.12
71.609001 -18.030001 0.77999997
71.639 -18.120001 0.79000002
71.698997 -18.25 0.83999997
71.698997 -18.25 0.81
71.738998 -18.32 0.81
71.760002 -18.389 0.81999999
71.799004 -18.459 0.83999997
71.82 -18.509001 0.83999997
71.829002 -18.540001 0.81
71.869003 -18.620001 0.83999997
71.869003 -18.629 0.81
71.690002 -17.969 1.15
71.658997 -17.919001 1.09
71.698997 -18 0.79000002
71.760002 -18.129 0.83999997
71.778999 -18.179001 0.83999997
71.799004 -18.219 0.81999999
71.808998 -18.25 0.79000002
71.848999 -18.339001 0.81999999
71.879997 -18.41 0.83999997
71.869003 -18.389 0.77999997
71.899002 -18.450001 0.77999997
71.929001 -18.530001 0.81
71.760002 -17.899 1.14
71.728996 -17.839001 1.0700001
71.838997 -18.08 0.83999997
71.869003 -18.149 0.83999997
71.889 -18.200001 0.83999997
71.879997 -18.179001 0.79000002
71.940002 -18.299 0.83999997
71.918999 -18.268999 0.77999997
72.039001 -18.530001 0.92000002
71.959 -18.360001 0.75999999
72.039001 -18.530001 0.83999997
72.028999 -18.509001 0.75999999
72.079002 -18.620001 0.81
71.848999 -17.870001 1.12
71.799004 -17.759001 0.87
71.848999 -17.879 0.88999999
71.859001 -17.889 0.87
71.859001 -17.899 0.83999997
71.859001 -17.899 0.79000002
71.918999 -18.040001 0.83999997
71.978996 -18.149 0.87
71.969002 -18.149 0.83999997
71.988998 -18.200001 0.83999997
72 -18.209 0.81
71.988998 -18.188999 0.75
72.079002 -18.399 0.85000002
72.010002 -18.24 0.70999998
72.129997 -18.509001 0.87
71.908997 -17.768999 1.09
71.948997 -17.860001 0.92000002
71.940002 -17.839001 0.87
71.948997 -17.860001 0.83999997
71.978996 -17.919001 0.83999997
72.039001 -18.059 0.88999999
72.049004 -18.099001 0.87
72.07 -18.120001 0.85000002
72.088997 -18.169001 0.83999997
72.079002 -18.149 0.81
72.168999 -18.360001 0.89999998
72.119003 -18.25 0.77999997
72.119003 -18.259001 0.75999999
72.168999 -18.349001 0.79000002
72.238998 -18.530001 0.87
71.978996 -17.688999 1.1
71.948997 -17.620001 1.03
72.028999 -17.799 0.89999998
72.028999 -17.809 0.87
72.039001 -17.839001 0.85000002
72.039001 -17.82 0.81
72.049004 -17.849001 0.79000002
72.139 -18.049 0.87
72.129997 -18.040001 0.83999997
72.158997 -18.089001 0.83999997
72.158997 -18.099001 0.79000002
72.190002 -18.179001 0.81
72.209 -18.209 0.79000002
72.268997 -18.349001 0.85000002
72.209 -18.209 0.73000002
72.039001 -17.599001 1.0599999
72.098999 -17.74 1.09
72.058998 -17.639 1
72.058998 -17.649 0.95999998
72.088997 -17.709 0.95999998
72.109001 -17.74 0.79000002
72.129997 -17.790001 0.77999997
72.179001 -17.91 0.81
72.219002 -17.99 0.83999997
72.209 -17.979 0.79000002
72.238998 -18.059 0.81
72.338997 -18.268999 0.83999997
72.488998 -18.610001 0.69999999
72.478996 -18.589001 0.64999998
72.510002 -18.639 0.67000002
72.469002 -18.559 0.56
72.469002 -18.57 0.52999997
72.448997 -18.530001 0.44999999
72.5 -18.620001 0.5
72.469002 -18.57 0.41999999
72.268997 -17.870001 0.88999999
72.299004 -17.959 0.92000002
72.308998 -17.969 0.88999999
72.32 -18 0.87
72.348999 -18.07 0.87
72.308998 -17.979 0.77999997
72.369003 -18.120001 0.83999997
72.369003 -18.099001 0.77999997
72.408997 -18.188999 0.81
72.459 -18.309 0.79000002
72.57 -18.559 0.73000002
72.57 -18.559 0.69999999
72.57 -18.540001 0.64999998
72.57 -18.559 0.62
72.579002 -18.57 0.60000002
72.57 -18.559 0.56
72.57 -18.559 0.52999997
72.579002 -18.58 0.5
72.558998 -18.540001 0.41999999
72.209 -17.518999 0.70999998
72.308998 -17.74 0.81
72.268997 -17.629 0.69999999
72.369003 -17.879 0.81999999
72.518997 -18.219 0.58999997
72.619003 -18.438999 0.68000001
72.598999 -18.379 0.52999997
72.609001 -18.399 0.5
72.629997 -18.450001 0.5
72.649002 -18.5 0.5
72.639 -18.469 0.44999999
72.668999 -18.549 0.47999999
72.399002 -17.709 0.58999997
72.418999 -17.74 0.56999999
72.469002 -17.849001 0.62
72.518997 -17.959 0.64999998
72.528999 -17.979 0.62
72.549004 -18.040001 0.63999999
72.57 -18.089001 0.63999999
72.629997 -18.209 0.68000001
72.619003 -18.200001 0.63999999
72.639 -18.24 0.63999999
72.639 -18.24 0.58999997
72.658997 -18.290001 0.60000002
72.679001 -18.32 0.58999997
72.698997 -18.379 0.58999997
72.698997 -18.379 0.56
72.679001 -18.339001 0.5
72.690002 -18.349001 0.46000001
72.690002 -18.360001 0.43000001
72.719002 -18.429001 0.41999999
71.098999 -18.209 1.09
71.139 -18.110001 1.0700001
71.190002 -18.16 1.0700001
71.119003 -18.200001 1.04
71.098999 -18.25 1.03
71.168999 -18.299 1.03
71.088997 -18.389 1
71.399002 -18.08 1.12
71.338997 -18.120001 1.09
71.228996 -18.149 1.04
71.129997 -18.179001 1.01
71.139 -18.229 1
71.179001 -18.290001 1
71.119003 -18.33 0.98000002
71.119003 -18.379 0.95999998
71.149002 -18.429001 0.95999998
71.139 -18.479 0.94999999
71.448997 -18.018999 1.1
71.408997 -18.059 1.09
71.32 -18.099001 1.04
71.399002 -18.16 1.0599999
71.228996 -18.179001 1
71.158997 -18.219 0.98000002
71.168999 -18.268999 0.95999998
71.168999 -18.32 0.94999999
71.158997 -18.370001 0.93000001
71.168999 -18.419001 0.93000001
71.190002 -18.469 0.92000002
71.25 -18.518999 0.93000001
71.168999 -18.57 0.88999999
71.238998 -18.620001 0.92000002
71.579002 -17.979 1.1
71.57 -18.030001 1.09
71.629997 -18.08 1.09
71.429001 -18.099001 1.03
71.539001 -18.16 1.0599999
71.429001 -18.200001 1.01
71.510002 -18.25 1.03
71.158997 -18.259001 0.92000002
71.190002 -18.32 0.92000002
71.209 -18.370001 0.92000002
71.190002 -18.419001 0.88999999
71.209 -18.469 0.88999999
71.198997 -18.518999 0.87
71.228996 -18.57 0.87
71.260002 -18.620001 0.87
71.209 -18.669001 0.85000002
71.278999 -18.719 0.85000002
71.57 -17.91 1.0700001
71.668999 -17.969 1.09
71.598999 -18.009001 1.0599999
71.588997 -18.149 1.03
71.57 -18.200001 1.01
71.459 -18.229 0.98000002
71.308998 -18.268999 0.92000002
71.268997 -18.309 0.89999998
71.149002 -18.349001 0.85000002
71.190002 -18.399 0.85000002
71.228996 -18.459 0.87
71.219002 -18.509001 0.83999997
71.25 -18.559 0.83999997
71.299004 -18.610001 0.83999997
71.25 -18.66 0.81999999
71.32 -18.709 0.83999997
71.299004 -18.759001 0.81
71.778999 -17.870001 1.1
71.690002 -17.91 1.0700001
71.728996 -17.959 1.0700001
71.690002 -18.139 1.03
71.528999 -18.169001 0.98000002
71.399002 -18.209 0.92000002
71.348999 -18.25 0.89999998
71.308998 -18.299 0.88999999
71.268997 -18.349001 0.85000002
71.149002 -18.389 0.81
71.158997 -18.438999 0.81
71.190002 -18.49 0.81
71.228996 -18.549 0.81
71.399002 -18.599001 0.83999997
71.379997 -18.649 0.81999999
71.389 -18.700001 0.81999999
71.338997 -18.75 0.79000002
71.918999 -17.83 1.12
71.808998 -17.860001 1.09
71.728996 -17.899 1.0599999
71.82 -17.959 1.0599999
71.690002 -18.129 1
71.399002 -18.149 0.88999999
71.418999 -18.200001 0.88999999
71.418999 -18.25 0.88999999
71.338997 -18.299 0.85000002
71.260002 -18.339001 0.81
71.219002 -18.389 0.79000002
71.348999 -18.450001 0.81999999
71.639 -18.509001 0.88999999
71.5 -18.549 0.83999997
71.418999 -18.599001 0.81
71.5 -18.649 0.81999999
71.5 -18.700001 0.81
71.418999 -18.75 0.77999997
71.488998 -18.799 0.79000002
71.879997 -17.759001 1.09
71.918999 -17.82 1.09
71.75 -17.839001 1.03
71.510002 -17.959 0.93000001
71.899002 -18.049 1.03
71.629997 -18.07 0.94999999
71.510002 -18.110001 0.89999998
71.418999 -18.149 0.87
71.429001 -18.200001 0.87
71.408997 -18.25 0.83999997
71.369003 -18.299 0.81999999
71.278999 -18.339001 0.77999997
71.379997 -18.399 0.81
71.639 -18.459 0.87
71.57 -18.509001 0.83999997
71.528999 -18.549 0.81
71.558998 -18.599001 0.81
71.579002 -18.649 0.81
71.57 -18.700001 0.79000002
71.528999 -18.75 0.77999997
71.649002 -18.799 0.81
71.969002 -17.709 1.09
71.869003 -17.75 1.0599999
71.940002 -17.799 1.0599999
71.848999 -17.979 1
71.639 -18.009001 0.92000002
72.039001 -18.099001 1.03
71.549004 -18.099001 0.88999999
71.418999 -18.139 0.83999997
71.429001 -18.188999 0.81999999
71.429001 -18.24 0.81
71.359001 -18.290001 0.77999997
71.488998 -18.349001 0.81
71.488998 -18.399 0.81
71.579002 -18.450001 0.81
71.690002 -18.5 0.83999997
71.719002 -18.549 0.83999997
71.658997 -18.599001 0.81
71.649002 -18.649 0.79000002
71.728996 -18.700001 0.81
71.719002 -18.75 0.79000002
71.75 -18.799 0.79000002
71.969002 -17.649 1.0599999
71.889 -17.688999 1.03
71.948997 -17.790001 1.03
71.429001 -18.179001 0.79000002
71.408997 -18.229 0.77999997
71.698997 -18.299 0.83999997
71.629997 -18.349001 0.81999999
71.698997 -18.399 0.81999999
71.760002 -18.450001 0.83999997
71.799004 -18.5 0.83999997
71.799004 -18.549 0.81999999
71.768997 -18.599001 0.81
71.75 -18.649 0.79000002
71.799004 -18.700001 0.79000002
71.859001 -18.75 0.81
72.190002 -17.66 1.09
72.079002 -17.700001 1.0599999
72.07 -17.74 1.03
72.149002 -17.799 1.0599999
71.978996 -17.870001 0.98000002
71.978996 -17.919001 0.98000002
71.829002 -17.959 0.92000002
71.609001 -18.188999 0.81
71.698997 -18.25 0.81999999
71.679001 -18.290001 0.81
71.719002 -18.349001 0.81
71.768997 -18.399 0.81
71.879997 -18.450001 0.83999997
71.838997 -18.5 0.81
71.869003 -18.549 0.81
71.948997 -18.599001 0.81999999
71.899002 -18.649 0.81
71.899002 -18.688999 0.79000002
72.079002 -17.58 1.03
72.039001 -17.669001 1
72.190002 -17.74 1.03
72.028999 -17.768999 0.98000002
72.058998 -17.82 0.98000002
71.959 -17.860001 0.94999999
71.918999 -17.899 0.92000002
71.879997 -17.950001 0.88999999
71.649002 -18.08 0.81
71.838997 -18.139 0.85000002
71.940002 -18.200001 0.87
71.908997 -18.25 0.83999997
71.838997 -18.290001 0.81
71.889 -18.339001 0.81999999
71.948997 -18.389 0.83999997
72 -18.438999 0.83999997
71.978996 -18.49 0.81
72.028999 -18.540001 0.81999999
71.948997 -18.589001 0.77999997
72.018997 -18.639 0.81
72.129997 -17.58 1.01
72.158997 -17.679001 1
72.209 -17.729 1.01
72.329002 -17.790001 1.03
72.109001 -17.809 0.95999998
72.149002 -17.870001 0.95999998
71.948997 -17.899 0.88999999
71.899002 -17.938999 0.87
71.879997 -17.99 0.85000002
71.988998 -18.049 0.87
72.07 -18.099001 0.88999999
72.079002 -18.149 0.88999999
71.959 -18.188999 0.83999997
71.929001 -18.24 0.81
71.988998 -18.290001 0.81999999
71.978996 -18.339001 0.81
72.079002 -18.389 0.83999997
71.988998 -18.438999 0.79000002
72.039001 -18.49 0.81
72.049004 -18.540001 0.79000002
72.07 -18.589001 0.79000002
72.129997 -17.559 0.98000002
72.209 -17.719 0.98000002
72.238998 -17.768999 0.98000002
72.168999 -17.809 0.94999999
72.049004 -17.849001 0.89999998
72.190002 -17.91 0.93000001
71.978996 -17.938999 0.87
71.899002 -17.99 0.83999997
72.098999 -18.049 0.87
72.098999 -18.099001 0.87
72.098999 -18.149 0.85000002
72.088997 -18.200001 0.83999997
72.039001 -18.25 0.81
72.039001 -18.290001 0.81
72.079002 -18.339001 0.81
72.129997 -18.389 0.81
72.088997 -18.438999 0.79000002
72.168999 -18.49 0.81
72.198997 -18.540001 0.81
72.088997 -17.549 0.94999999
72.149002 -17.599001 0.94999999
72.088997 -17.649 0.92000002
72.158997 -17.700001 0.93000001
72.198997 -17.809 0.92000002
72.268997 -17.91 0.92000002
72.219002 -17.950001 0.89999998
72.139 -18 0.87
72.079002 -18.040001 0.83999997
72.149002 -18.099001 0.85000002
72.129997 -18.149 0.83999997
72.129997 -18.200001 0.81999999
72.139 -18.25 0.81
72.158997 -18.290001 0.81
72.119003 -18.339001 0.79000002
72.129997 -18.389 0.77999997
72.168999 -18.438999 0.77999997
72.158997 -18.49 0.77999997
72.119003 -17.589001 0.92000002
72.219002 -17.700001 0.92000002
72.179001 -17.799 0.88999999
72.329002 -17.860001 0.92000002
72.338997 -17.91 0.92000002
72.308998 -17.950001 0.88999999
72.158997 -18 0.83999997
72.149002 -18.049 0.83999997
72.119003 -18.089001 0.81
72.179001 -18.149 0.81
72.198997 -18.200001 0.81
72.190002 -18.25 0.81
72.190002 -18.290001 0.79000002
72.139 -18.339001 0.75999999
72.289001 -18.438999 0.79000002
72.168999 -17.639 0.88999999
72.209 -17.688999 0.88999999
72.308998 -17.799 0.88999999
72.198997 -17.839001 0.85000002
72.289001 -17.899 0.87
72.440002 -17.959 0.89999998
72.369003 -18 0.87
72.329002 -18.049 0.85000002
72.289001 -18.099001 0.81999999
72.158997 -18.139 0.77999997
72.190002 -18.188999 0.77999997
72.299004 -18.25 0.81
72.369003 -18.339001 0.81
72.408997 -18.389 0.81
72.429001 -18.438999 0.81
72.25 -17.639 0.87
72.179001 -17.729 0.83999997
72.389 -17.799 0.88999999
72.379997 -17.849001 0.87
72.440002 -17.899 0.88999999
72.448997 -17.950001 0.87
72.459 -18 0.87
72.379997 -18.049 0.83999997
72.329002 -18.089001 0.81
72.338997 -18.139 0.81
72.418999 -18.188999 0.81
72.329002 -18.24 0.77999997
72.32 -18.339001 0.75
72.219002 -17.629 0.83999997
72.32 -17.688999 0.85000002
72.149002 -17.729 0.79000002
72.32 -17.790001 0.83999997
72.129997 -17.83 0.75999999
72.369003 -17.889 0.81999999
72.359001 -17.938999 0.81
72.278999 -17.99 0.77999997
72.289001 -18.040001 0.77999997
72.418999 -18.089001 0.81
72.379997 -18.139 0.77999997
72.399002 -18.188999 0.77999997
72.399002 -18.24 0.75999999
72.5 -18.290001 0.77999997
72.510002 -18.339001 0.77999997
72.459 -18.389 0.75
72.539001 -18.639 0.73000002
72.190002 -17.669001 0.77999997
72.369003 -17.790001 0.81
72.308998 -17.83 0.79000002
72.399002 -17.889 0.81
72.329002 -17.938999 0.77999997
72.440002 -17.99 0.79000002
72.478996 -18.040001 0.79000002
72.429001 -18.089001 0.77999997
72.459 -18.139 0.77999997
72.408997 -18.188999 0.75
72.459 -18.24 0.75
72.488998 -18.290001 0.75
72.698997 -18.479 0.77999997
72.588997 -18.589001 0.73000002
72.579002 -18.639 0.69999999
72.158997 -17.559 0.75999999
72.260002 -17.669001 0.77999997
72.268997 -17.780001 0.75
72.338997 -17.83 0.75999999
72.278999 -17.879 0.73000002
72.478996 -17.938999 0.77999997
72.448997 -17.99 0.75999999
72.348999 -18.040001 0.73000002
72.399002 -18.089001 0.73000002
72.389 -18.139 0.70999998
72.5 -18.188999 0.75
72.459 -18.24 0.70999998
72.629997 -18.290001 0.75
72.598999 -18.540001 0.69999999
72.588997 -18.589001 0.68000001
72.539001 -18.639 0.64999998
72.179001 -17.559 0.73000002
72.179001 -17.610001 0.73000002
72.228996 -17.669001 0.73000002
72.198997 -17.719 0.70999998
72.299004 -17.768999 0.73000002
72.389 -17.83 0.75
72.389 -17.879 0.73000002
72.448997 -17.929001 0.75
72.510002 -17.99 0.75
72.399002 -18.040001 0.69999999
72.408997 -18.089001 0.69999999
72.528999 -18.139 0.73000002
72.5 -18.188999 0.69999999
72.639 -18.24 0.73000002
72.57 -18.290001 0.69999999
72.649002 -18.438999 0.69999999
72.619003 -18.540001 0.67000002
72.57 -18.599001 0.63999999
72.528999 -18.649 0.62
72.228996 -17.559 0.73000002
72.289001 -17.610001 0.73000002
72.149002 -17.66 0.67000002
72.308998 -17.719 0.70999998
72.389 -17.768999 0.73000002
72.379997 -17.83 0.69999999
72.459 -17.879 0.73000002
72.518997 -17.929001 0.73000002
72.389 -17.979 0.67000002
72.539001 -18.040001 0.70999998
72.459 -18.089001 0.67000002
72.518997 -18.139 0.68000001
72.588997 -18.188999 0.69999999
72.629997 -18.24 0.69999999
72.57 -18.290001 0.67000002
72.629997 -18.438999 0.64999998
72.598999 -18.5 0.63999999
72.528999 -18.549 0.60000002
72.539001 -18.599001 0.58999997
72.5 -18.66 0.56999999
72.260002 -17.438999 0.70999998
72.25 -17.5 0.69999999
72.228996 -17.549 0.68000001
72.369003 -17.610001 0.70999998
72.219002 -17.66 0.67000002
72.268997 -17.709 0.67000002
72.32 -17.768999 0.67000002
72.440002 -17.82 0.68000001
72.399002 -17.879 0.67000002
72.488998 -17.929001 0.68000001
72.399002 -17.979 0.63999999
72.440002 -18.030001 0.63999999
72.549004 -18.08 0.67000002
72.579002 -18.139 0.67000002
72.629997 -18.188999 0.67000002
72.579002 -18.24 0.63999999
72.558998 -18.290001 0.62
72.639 -18.438999 0.62
72.609001 -18.5 0.58999997
72.639 -18.549 0.58999997
72.478996 -18.610001 0.52999997
72.518997 -18.66 0.52999997
72.32 -17.5 0.68000001
72.418999 -17.559 0.69999999
72.299004 -17.610001 0.64999998
72.389 -17.669001 0.67000002
72.348999 -17.719 0.63999999
72.418999 -17.768999 0.64999998
72.359001 -17.83 0.63999999
72.448997 -17.879 0.63999999
72.418999 -17.929001 0.62
72.469002 -17.99 0.62
72.558998 -18.040001 0.63999999
72.588997 -18.089001 0.63999999
72.579002 -18.139 0.63999999
72.539001 -18.188999 0.60000002
72.639 -18.24 0.62
72.598999 -18.299 0.60000002
72.649002 -18.399 0.58999997
72.649002 -18.450001 0.58999997
72.668999 -18.5 0.58999997
72.579002 -18.559 0.54000002
72.558998 -18.620001 0.52999997
72.510002 -18.679001 0.5
72.299004 -17.5 0.63999999
72.379997 -17.559 0.64999998
72.32 -17.610001 0.62
72.329002 -17.669001 0.62
72.338997 -17.719 0.62
72.308998 -17.768999 0.58999997
72.260002 -17.83 0.56
72.518997 -17.879 0.62
72.549004 -17.938999 0.62
72.549004 -17.99 0.62
72.459 -18.040001 0.56999999
72.510002 -18.099001 0.58999997
72.57 -18.149 0.58999997
72.649002 -18.200001 0.60000002
72.579002 -18.25 0.56999999
72.679001 -18.299 0.58999997
72.649002 -18.41 0.56
72.658997 -18.459 0.56
72.619003 -18.518999 0.52999997
72.619003 -18.57 0.50999999
72.539001 -18.629 0.47999999
72.528999 -18.688999 0.46000001
72.278999 -17.610001 0.58999997
72.260002 -17.66 0.56
72.359001 -17.719 0.58999997
72.510002 -17.780001 0.62
72.440002 -17.83 0.58999997
72.469002 -17.889 0.58999997
72.399002 -17.938999 0.54000002
72.5 -17.99 0.56
72.598999 -18.040001 0.58999997
72.558998 -18.099001 0.56
72.510002 -18.149 0.52999997
72.588997 -18.200001 0.56
72.598999 -18.259001 0.54000002
72.609001 -18.309 0.52999997
72.629997 -18.360001 0.52999997
72.649002 -18.419001 0.52999997
72.629997 -18.469 0.5
72.649002 -18.518999 0.5
72.57 -18.58 0.46000001
72.619003 -18.629 0.46000001
72.488998 -17.780001 0.56999999
72.440002 -17.839001 0.54000002
72.528999 -17.889 0.56
72.488998 -17.950001 0.52999997
72.549004 -18 0.54000002
72.459 -18.059 0.5
72.579002 -18.110001 0.52999997
72.579002 -18.16 0.52999997
72.629997 -18.209 0.52999997
72.649002 -18.268999 0.50999999
72.609001 -18.32 0.5
72.658997 -18.370001 0.5
72.709 -18.419001 0.5
72.668999 -18.479 0.47999999
72.619003 -18.540001 0.44999999
72.629997 -18.589001 0.44999999
72.579002 -18.66 0.41999999
72.549004 -17.950001 0.50999999
72.418999 -18.009001 0.46000001
72.5 -18.07 0.47999999
72.57 -18.120001 0.47999999
72.629997 -18.169001 0.5
72.598999 -18.229 0.47999999
72.668999 -18.280001 0.47999999
72.658997 -18.33 0.47999999
72.649002 -18.389 0.44999999
72.75 -18.429001 0.47999999
72.709 -18.49 0.44999999
72.639 -18.549 0.41999999
72.649002 -18.610001 0.40000001
72.609001 -18.669001 0.38999999
72.639 -18.719 0.38999999
72.768997 -18.268999 0.47999999
72.668999 -18.339001 0.43000001
72.698997 -18.389 0.43000001
72.698997 -18.438999 0.41999999
72.709 -18.5 0.41999999
72.760002 -18.549 0.41999999
72.698997 -18.610001 0.38999999
72.658997 -18.669001 0.34999999
72.629997 -18.729 0.34
72.690002 -18.349001 0.40000001
72.709 -18.399 0.38999999
72.709 -18.459 0.38999999
72.728996 -18.509001 0.37
72.778999 -18.559 0.38999999
72.658997 -18.629 0.34
72.668999 -18.688999 0.31999999
72.558998 -18.759001 0.28
72.698997 -18.360001 0.37
72.690002 -18.419001 0.34
72.760002 -18.469 0.34999999
72.760002 -18.530001 0.34
72.709 -18.589001 0.31
72.698997 -18.649 0.31
72.690002 -18.709 0.28
72.579002 -18.780001 0.23
72.668999 -18.32 0.31999999
72.698997 -18.379 0.31999999
72.719002 -18.429001 0.31
72.778999 -18.479 0.31999999
72.760002 -18.540001 0.31
72.760002 -18.599001 0.28999999
72.698997 -18.669001 0.25999999
72.639 -18.729 0.23
72.709 -18.339001 0.28999999
72.738998 -18.389 0.28999999
72.698997 -18.450001 0.25999999
72.778999 -18.5 0.28
72.799004 -18.559 0.28
72.778999 -18.620001 0.25
72.690002 -18.688999 0.20999999
72.558998 -18.768999 0.15000001
72.679001 -18.360001 0.25
72.698997 -18.419001 0.23
72.738998 -18.469 0.25
72.760002 -18.530001 0.23
72.778999 -18.58 0.23
72.690002 -18.649 0.18000001
72.558998 -18.729 0.14
72.690002 -18.379 0.20999999
72.690002 -18.438999 0.2
72.75 -18.49 0.2
72.75 -18.549 0.2
72.75 -18.610001 0.17
72.619003 -18.688999 0.12
72.5 -18.768999 0.07
72.728996 -18.389 0.2
72.709 -18.450001 0.17
72.799004 -18.5 0.18000001
72.75 -18.57 0.15000001
72.690002 -18.639 0.12
72.579002 -18.719 0.07
72.698997 -18.41 0.15000001
72.690002 -18.469 0.14
72.668999 -18.530001 0.11
72.709 -18.589001 0.11
72.690002 -18.649 0.090000004
72.709 -18.419001 0.12
72.738998 -18.469 0.12
72.728996 -18.540001 0.1
72.719002 -18.599001 0.079999998
72.698997 -18.438999 0.079999998
72.728996 -18.5 0.079999998
72.728996 -18.559 0.07
72.698997 -18.459 0.050000001
72.728996 -18.518999 0.039999999
71.588997 -18.669001 0.68000001
71.088997 -18.32 0.94999999
