# .PCD v0.7 - Point Cloud Data file format
VERSION 0.7
FIELDS x y z
SIZE 4 4 4
TYPE F F F
COUNT 1 1 1
WIDTH 908
HEIGHT 1
VIEWPOINT 0 0 0 1 0 0 0
POINTS 908
DATA ascii
68.82 -17.25 0.52999997
69.049004 -17.360001 0.34999999
69.510002 -18.149 0.58999997
69.889 -18.669001 0.62
68.698997 -17.209 0.56
68.918999 -17.339001 0.62
69.728996 -18.41 0.52999997
68.75 -17.309 0.62
69.058998 -17.429001 0.67000002
68.789001 -17.110001 0.56
68.959 -17.41 0.56999999
69.058998 -17.679001 0.64999998
69.440002 -17.950001 0.58999997
69.738998 -18.610001 0.63999999
70.058998 -18.849001 0.37
69.109001 -17.759001 0.58999997
69.119003 -17.780001 0.56
69.32 -18.360001 0.79000002
69.369003 -18.49 0.25
69.359001 -18.479 0.2
69.379997 -18.530001 0.18000001
69.408997 -18.610001 0.2
69.238998 -17.839001 0.64999998
69.209 -17.759001 0.56999999
69.228996 -17.82 0.56
69.408997 -18.339001 0.63999999
69.639 -18.979 0.41999999
69.579002 -18.530001 0.58999997
69.75 -19.018999 0.75
69.82 -19.219 0.56
69.778999 -18.83 0.54000002
69.848999 -19.018999 0.62
69.869003 -19.099001 0.63999999
69.978996 -19.419001 0.79000002
70.018997 -19.509001 0.79000002
70.010002 -19.200001 0.52999997
70.039001 -19.290001 0.56
70.109001 -19.509001 0.63999999
70.158997 -19.66 0.69999999
70.289001 -19.759001 0.52999997
69.988998 -19.57 0.95999998
70.228996 -19.879 0.41999999
70.238998 -19.669001 0.63999999
70.238998 -19.66 0.58999997
70.260002 -19.709 0.58999997
70.268997 -19.74 0.58999997
70.268997 -19.74 0.41999999
70.278999 -19.75 0.38999999
70.299004 -19.790001 0.38999999
70.32 -19.839001 0.38999999
69.838997 -19.399 0.94999999
69.848999 -19.339001 0.93000001
69.869003 -19.389 0.93000001
69.859001 -19.438999 0.92000002
69.859001 -19.49 0.92000002
69.838997 -19.370001 0.88999999
69.889 -19.429001 0.88999999
69.940002 -19.49 0.89999998
69.859001 -19.41 0.85000002
69.929001 -19.479 0.87
69.959 -19.58 0.87
69.82 -19.389 0.81
69.929001 -19.459 0.83999997
69.848999 -19.389 0.77999997
69.969002 -19.459 0.81999999
69.978996 -19.509001 0.81
69.978996 -19.459 0.77999997
69.969002 -19.509001 0.77999997
70.028999 -19.559 0.79000002
69.988998 -19.450001 0.75999999
70 -19.5 0.75
69.829002 -19.370001 0.68000001
69.948997 -19.438999 0.70999998
70.039001 -19.5 0.75
70.049004 -19.559 0.73000002
70.088997 -19.610001 0.73000002
69.07 -17.790001 0.60000002
69.209 -17.899 0.63999999
69.899002 -19.370001 0.67000002
69.988998 -19.438999 0.69999999
70.088997 -19.509001 0.73000002
70.039001 -19.549 0.69999999
68.668999 -17.379 0.47999999
68.690002 -17.450001 0.47999999
68.908997 -17.66 0.52999997
69.028999 -17.768999 0.56
69.260002 -17.91 0.62
69.260002 -18.219 0.58999997
69.329002 -18.290001 0.58999997
69.369003 -18.370001 0.58999997
69.459 -18.450001 0.62
69.789001 -19.139 0.63999999
69.838997 -19.200001 0.63999999
69.929001 -19.268999 0.67000002
69.929001 -19.33 0.64999998
70 -19.389 0.67000002
70.028999 -19.450001 0.67000002
70.058998 -19.5 0.68000001
70.088997 -19.559 0.68000001
68.598999 -17.200001 0.44999999
68.698997 -17.309 0.47999999
68.808998 -17.419001 0.5
68.889 -17.509001 0.50999999
68.940002 -17.589001 0.50999999
68.940002 -17.66 0.5
69.018997 -17.75 0.52999997
69.158997 -17.860001 0.56
69.158997 -17.919001 0.54000002
69.190002 -18 0.54000002
69.198997 -18.059 0.54000002
69.260002 -18.139 0.56
69.338997 -18.229 0.56
69.348999 -18.290001 0.56
69.379997 -18.360001 0.56
69.469002 -18.438999 0.58999997
69.469002 -18.5 0.56999999
69.719002 -18.839001 0.62
69.778999 -18.969 0.62
69.82 -19.030001 0.62
69.82 -19.08 0.62
69.889 -19.149 0.63999999
69.869003 -19.200001 0.62
69.940002 -19.268999 0.63999999
69.959 -19.32 0.63999999
70.028999 -19.389 0.63999999
70.049004 -19.438999 0.63999999
70.088997 -19.5 0.64999998
70.07 -19.549 0.63999999
70.109001 -19.599001 0.63999999
70.139 -19.66 0.64999998
68.558998 -17.099001 0.41999999
68.709 -17.229 0.44999999
68.82 -17.339001 0.47999999
68.899002 -17.438999 0.47999999
68.889 -17.5 0.47999999
68.948997 -17.589001 0.47999999
69.049004 -17.688999 0.5
69.058998 -17.75 0.5
69.119003 -17.839001 0.5
69.179001 -17.919001 0.50999999
69.179001 -17.979 0.50999999
69.25 -18.07 0.52999997
69.25 -18.129 0.50999999
69.348999 -18.219 0.52999997
69.369003 -18.280001 0.52999997
69.459 -18.370001 0.56
69.5 -18.438999 0.56
69.528999 -18.5 0.56
69.57 -18.57 0.56
69.760002 -18.839001 0.58999997
69.778999 -18.959 0.58999997
69.808998 -19.018999 0.58999997
69.829002 -19.08 0.58999997
69.869003 -19.139 0.58999997
69.940002 -19.209 0.60000002
69.959 -19.259001 0.60000002
69.988998 -19.32 0.62
70.028999 -19.379 0.62
70.049004 -19.438999 0.62
70.109001 -19.5 0.62
70.129997 -19.549 0.62
70.158997 -19.610001 0.63999999
70.228996 -19.669001 0.63999999
70.228996 -19.82 0.62
70.299004 -19.879 0.63999999
70.299004 -19.929001 0.63999999
70.329002 -19.979 0.63999999
68.528999 -17.009001 0.37
68.649002 -17.129 0.40000001
68.75 -17.24 0.41999999
68.768997 -17.32 0.41999999
68.869003 -17.419001 0.44999999
68.908997 -17.5 0.44999999
68.978996 -17.589001 0.44999999
69.010002 -17.669001 0.44999999
69.088997 -17.759001 0.47999999
69.119003 -17.83 0.47999999
69.158997 -17.91 0.47999999
69.260002 -18 0.5
69.289001 -18.07 0.5
69.348999 -18.149 0.50999999
69.369003 -18.219 0.5
69.399002 -18.290001 0.50999999
69.440002 -18.360001 0.50999999
69.488998 -18.429001 0.52999997
69.57 -18.509001 0.52999997
69.539001 -18.559 0.52999997
69.609001 -18.629 0.52999997
69.679001 -18.82 0.52999997
69.799004 -18.899 0.56
69.789001 -18.959 0.56
69.829002 -19.018999 0.56
69.879997 -19.089001 0.56999999
69.918999 -19.149 0.56999999
69.948997 -19.209 0.56999999
69.959 -19.259001 0.56999999
70.028999 -19.33 0.58999997
70.039001 -19.379 0.58999997
70.079002 -19.438999 0.58999997
70.129997 -19.5 0.58999997
70.129997 -19.549 0.58999997
70.119003 -19.599001 0.58999997
70.228996 -19.669001 0.62
70.219002 -19.719 0.60000002
70.238998 -19.768999 0.60000002
70.278999 -19.83 0.60000002
70.308998 -19.879 0.62
70.32 -19.929001 0.62
70.348999 -19.979 0.62
68.649002 -17.049 0.37
68.668999 -17.129 0.37
68.738998 -17.219 0.38999999
68.879997 -17.349001 0.41999999
68.869003 -17.41 0.40000001
68.918999 -17.5 0.41999999
68.978996 -17.58 0.41999999
69.039001 -17.66 0.41999999
69.119003 -17.759001 0.44999999
69.109001 -17.82 0.43000001
69.168999 -17.899 0.44999999
69.278999 -18 0.46000001
69.348999 -18.08 0.47999999
69.299004 -18.129 0.46000001
69.379997 -18.209 0.47999999
69.429001 -18.290001 0.47999999
69.469002 -18.360001 0.47999999
69.469002 -18.419001 0.47999999
69.558998 -18.5 0.5
69.579002 -18.559 0.5
69.649002 -18.639 0.50999999
69.679001 -18.700001 0.50999999
69.728996 -18.768999 0.52999997
69.738998 -18.83 0.52999997
69.778999 -18.889 0.52999997
69.768997 -18.950001 0.50999999
69.859001 -19.018999 0.52999997
69.908997 -19.089001 0.54000002
69.879997 -19.139 0.52999997
69.940002 -19.200001 0.54000002
69.978996 -19.259001 0.54000002
70.028999 -19.32 0.56
70.039001 -19.379 0.56
70.088997 -19.438999 0.56
70.109001 -19.5 0.56
70.119003 -19.549 0.56
70.158997 -19.610001 0.56
70.228996 -19.669001 0.56999999
70.198997 -19.719 0.56
70.260002 -19.768999 0.56999999
70.260002 -19.83 0.56
70.260002 -19.879 0.56
70.348999 -19.938999 0.58999997
70.348999 -19.99 0.58999997
70.338997 -20.040001 0.56999999
70.389 -20.089001 0.56999999
68.619003 -17.040001 0.31999999
68.698997 -17.139 0.34
68.778999 -17.24 0.34999999
68.789001 -17.309 0.34999999
68.929001 -17.429001 0.38999999
68.969002 -17.509001 0.38999999
68.988998 -17.58 0.38999999
69.039001 -17.669001 0.38999999
69.129997 -17.759001 0.41999999
69.119003 -17.82 0.38999999
69.198997 -17.91 0.41999999
69.25 -17.99 0.41999999
69.278999 -18.059 0.41999999
69.338997 -18.139 0.43000001
69.408997 -18.219 0.44999999
69.418999 -18.290001 0.44999999
69.488998 -18.360001 0.44999999
69.478996 -18.419001 0.44999999
69.539001 -18.5 0.44999999
69.588997 -18.57 0.46000001
69.598999 -18.629 0.46000001
69.639 -18.700001 0.46000001
69.698997 -18.768999 0.47999999
69.778999 -18.839001 0.5
69.760002 -18.889 0.47999999
69.869003 -18.969 0.5
69.859001 -19.030001 0.5
69.908997 -19.089001 0.5
69.959 -19.149 0.50999999
69.978996 -19.209 0.50999999
69.978996 -19.268999 0.5
70.010002 -19.33 0.50999999
70.079002 -19.389 0.52999997
70.07 -19.438999 0.50999999
70.119003 -19.5 0.52999997
70.158997 -19.559 0.52999997
70.139 -19.620001 0.52999997
70.25 -19.679001 0.56
70.25 -19.729 0.54000002
70.268997 -19.790001 0.54000002
70.308998 -19.839001 0.56
70.32 -19.889 0.54000002
70.348999 -19.950001 0.56
70.348999 -20 0.54000002
70.389 -20.049 0.56
70.389 -20.099001 0.54000002
68.510002 -16.929001 0.25999999
68.658997 -17.059 0.28999999
68.760002 -17.169001 0.31
68.859001 -17.268999 0.34
68.829002 -17.33 0.31999999
68.848999 -17.41 0.31999999
68.959 -17.518999 0.34
69.028999 -17.599001 0.34999999
69.058998 -17.679001 0.34999999
69.079002 -17.75 0.34999999
69.179001 -17.849001 0.37
69.228996 -17.929001 0.38999999
69.289001 -18.009001 0.38999999
69.329002 -18.08 0.38999999
69.348999 -18.149 0.38999999
69.418999 -18.229 0.41999999
69.408997 -18.290001 0.40000001
69.448997 -18.360001 0.40000001
69.518997 -18.438999 0.41999999
69.609001 -18.518999 0.44999999
69.588997 -18.58 0.41999999
69.668999 -18.649 0.44999999
69.719002 -18.719 0.44999999
69.738998 -18.780001 0.44999999
69.760002 -18.849001 0.44999999
69.808998 -18.91 0.46000001
69.82 -18.969 0.44999999
69.879997 -19.040001 0.46000001
69.908997 -19.099001 0.47999999
69.948997 -19.16 0.47999999
70.018997 -19.229 0.5
70.018997 -19.290001 0.47999999
70.028999 -19.339001 0.47999999
70.049004 -19.399 0.47999999
70.079002 -19.459 0.47999999
70.158997 -19.518999 0.5
70.158997 -19.58 0.5
70.209 -19.629 0.5
70.209 -19.688999 0.5
70.238998 -19.74 0.5
70.308998 -19.799 0.52999997
70.338997 -19.860001 0.52999997
70.32 -19.91 0.50999999
70.369003 -19.959 0.52999997
70.369003 -20.009001 0.50999999
70.408997 -20.07 0.52999997
68.440002 -16.83 0.20999999
68.588997 -16.959 0.25
68.768997 -17.099001 0.28999999
68.518997 -17.08 0.20999999
68.528999 -17.16 0.2
68.848999 -17.339001 0.28999999
68.889 -17.419001 0.28999999
68.959 -17.509001 0.31
69.018997 -17.599001 0.31
69.039001 -17.669001 0.31
69.119003 -17.759001 0.34
69.168999 -17.839001 0.34
69.219002 -17.919001 0.34
69.278999 -18 0.34999999
69.268997 -18.059 0.34
69.369003 -18.149 0.37
69.418999 -18.229 0.37
69.408997 -18.290001 0.37
69.469002 -18.370001 0.37
69.459 -18.419001 0.37
69.558998 -18.509001 0.38999999
69.57 -18.57 0.38999999
69.649002 -18.649 0.40000001
69.728996 -18.719 0.41999999
69.719002 -18.780001 0.41999999
69.799004 -18.860001 0.43000001
69.799004 -18.91 0.41999999
69.848999 -18.979 0.43000001
69.848999 -19.040001 0.41999999
69.918999 -19.110001 0.44999999
69.918999 -19.16 0.43000001
69.978996 -19.229 0.44999999
70.018997 -19.290001 0.44999999
70 -19.339001 0.44999999
70.07 -19.41 0.44999999
70.119003 -19.469 0.46000001
70.158997 -19.530001 0.47999999
70.179001 -19.58 0.47999999
70.209 -19.639 0.47999999
70.219002 -19.688999 0.47999999
70.268997 -19.75 0.47999999
70.299004 -19.809 0.47999999
70.32 -19.860001 0.47999999
70.329002 -19.919001 0.47999999
70.359001 -19.969 0.47999999
70.348999 -20.018999 0.47999999
70.399002 -20.08 0.47999999
68.408997 -16.74 0.17
68.488998 -16.849001 0.18000001
68.668999 -16.99 0.23
68.558998 -17.018999 0.2
68.5 -17.07 0.16
68.75 -17.229 0.23
68.829002 -17.33 0.25
68.929001 -17.429001 0.25999999
68.969002 -17.509001 0.28
69.010002 -17.589001 0.28
69.039001 -17.669001 0.28
69.119003 -17.759001 0.28999999
69.179001 -17.839001 0.31
69.219002 -17.919001 0.31
69.278999 -18 0.31
69.329002 -18.08 0.31999999
69.338997 -18.149 0.31999999
69.440002 -18.229 0.34
69.478996 -18.309 0.34999999
69.5 -18.370001 0.34999999
69.5 -18.429001 0.34
69.619003 -18.518999 0.37
69.598999 -18.58 0.37
69.658997 -18.649 0.37
69.690002 -18.719 0.37
69.760002 -18.790001 0.38999999
69.778999 -18.849001 0.38999999
69.838997 -18.919001 0.40000001
69.838997 -18.979 0.38999999
69.889 -19.049 0.40000001
69.929001 -19.110001 0.41999999
69.940002 -19.169001 0.40000001
69.969002 -19.229 0.41999999
70.018997 -19.290001 0.41999999
70.109001 -19.360001 0.44999999
70.109001 -19.419001 0.43000001
70.158997 -19.479 0.44999999
70.179001 -19.530001 0.44999999
70.168999 -19.589001 0.43000001
70.209 -19.649 0.44999999
70.228996 -19.700001 0.44999999
70.268997 -19.759001 0.44999999
70.289001 -19.809 0.44999999
70.289001 -19.870001 0.44999999
70.369003 -19.929001 0.46000001
70.338997 -19.979 0.44999999
70.369003 -20.030001 0.44999999
70.408997 -20.089001 0.44999999
68.549004 -16.870001 0.16
68.619003 -16.969 0.17
68.5 -17 0.14
68.728996 -17.149 0.2
68.778999 -17.24 0.2
68.789001 -17.309 0.2
68.918999 -17.429001 0.23
68.959 -17.509001 0.23
69 -17.589001 0.23
69.088997 -17.679001 0.25
69.109001 -17.759001 0.25
69.158997 -17.839001 0.25999999
69.228996 -17.919001 0.28
69.228996 -17.99 0.25999999
69.289001 -18.07 0.28
69.338997 -18.149 0.28
69.408997 -18.229 0.31
69.448997 -18.299 0.31
69.528999 -18.379 0.31999999
69.558998 -18.450001 0.31999999
69.57 -18.509001 0.31999999
69.609001 -18.58 0.31999999
69.690002 -18.66 0.34
69.698997 -18.719 0.34
69.768997 -18.790001 0.34999999
69.75 -18.849001 0.34
69.789001 -18.919001 0.34999999
69.869003 -18.99 0.37
69.899002 -19.049 0.37
69.940002 -19.120001 0.38999999
69.948997 -19.169001 0.37
70 -19.24 0.38999999
70.039001 -19.299 0.38999999
70.07 -19.360001 0.38999999
70.079002 -19.419001 0.38999999
70.139 -19.479 0.40000001
70.168999 -19.540001 0.40000001
70.219002 -19.599001 0.41999999
70.219002 -19.649 0.41999999
70.25 -19.709 0.41999999
70.289001 -19.768999 0.41999999
70.289001 -19.82 0.41999999
70.260002 -19.879 0.40000001
70.359001 -19.938999 0.41999999
70.379997 -19.99 0.41999999
70.399002 -20.049 0.41999999
70.429001 -20.099001 0.43000001
68.549004 -16.860001 0.12
68.588997 -16.950001 0.14
68.558998 -17.018999 0.11
68.709 -17.139 0.15000001
68.808998 -17.25 0.17
68.879997 -17.339001 0.18000001
68.879997 -17.41 0.17
69 -17.518999 0.2
69.018997 -17.589001 0.2
69.079002 -17.679001 0.20999999
69.129997 -17.759001 0.23
69.179001 -17.839001 0.23
69.179001 -17.91 0.23
69.289001 -18 0.25
69.308998 -18.07 0.25
69.338997 -18.139 0.25
69.379997 -18.219 0.25
69.448997 -18.299 0.28
69.510002 -18.379 0.28
69.5 -18.438999 0.28
69.57 -18.509001 0.28
69.598999 -18.58 0.28
69.679001 -18.66 0.31
69.709 -18.729 0.31
69.668999 -18.780001 0.28999999
69.760002 -18.849001 0.31
69.808998 -18.919001 0.31999999
69.869003 -18.99 0.34
69.879997 -19.049 0.34
69.918999 -19.120001 0.34
69.940002 -19.179001 0.34
70.018997 -19.25 0.34999999
70.058998 -19.309 0.37
69.959 -19.349001 0.31999999
69.859001 -19.399 0.28
70.039001 -19.479 0.34
70.190002 -19.549 0.38999999
70.228996 -19.610001 0.38999999
70.308998 -19.719 0.40000001
70.278999 -19.780001 0.38999999
70.32 -19.83 0.38999999
70.348999 -19.889 0.38999999
70.369003 -19.938999 0.38999999
70.399002 -20 0.38999999
70.389 -20.049 0.38999999
70.418999 -20.110001 0.38999999
68.558998 -16.860001 0.1
68.588997 -16.950001 0.1
68.588997 -17.018999 0.090000004
68.709 -17.139 0.12
68.799004 -17.24 0.14
68.879997 -17.33 0.15000001
68.869003 -17.399 0.14
68.978996 -17.5 0.16
69.018997 -17.589001 0.17
69.07 -17.669001 0.18000001
69.098999 -17.75 0.18000001
69.149002 -17.83 0.2
69.209 -17.91 0.2
69.228996 -17.979 0.2
69.299004 -18.07 0.20999999
69.379997 -18.149 0.23
69.418999 -18.229 0.23
69.469002 -18.299 0.25
69.488998 -18.370001 0.25
69.528999 -18.438999 0.25
69.579002 -18.509001 0.25999999
69.629997 -18.58 0.25999999
69.690002 -18.66 0.28
69.679001 -18.719 0.25999999
69.719002 -18.790001 0.28
69.799004 -18.860001 0.28999999
69.768997 -18.919001 0.28
69.879997 -18.99 0.31
69.859001 -19.049 0.28999999
69.918999 -19.120001 0.31
69.988998 -19.179001 0.31999999
69.969002 -19.24 0.31
69.848999 -19.290001 0.25999999
69.760002 -19.33 0.23
69.808998 -19.399 0.23
70.058998 -19.479 0.31
70.129997 -19.540001 0.31999999
70.228996 -19.610001 0.34999999
70.238998 -19.669001 0.34999999
70.260002 -19.719 0.34999999
70.308998 -19.780001 0.37
70.329002 -19.889 0.34999999
70.359001 -19.950001 0.37
70.408997 -20.009001 0.37
70.418999 -20.059 0.37
70.440002 -20.120001 0.37
68.57 -16.860001 0.07
68.579002 -16.929001 0.07
68.639 -17.030001 0.07
68.719002 -17.129 0.090000004
68.778999 -17.219 0.1
68.848999 -17.32 0.11
68.869003 -17.389 0.11
68.948997 -17.49 0.14
68.988998 -17.57 0.14
69.039001 -17.649 0.14
69.119003 -17.75 0.15000001
69.158997 -17.82 0.16
69.228996 -17.91 0.17
69.260002 -17.979 0.17
69.32 -18.07 0.2
69.379997 -18.139 0.2
69.389 -18.209 0.2
69.408997 -18.280001 0.2
69.469002 -18.360001 0.2
69.539001 -18.438999 0.23
69.539001 -18.5 0.20999999
69.639 -18.58 0.23
69.649002 -18.649 0.23
69.690002 -18.719 0.23
69.738998 -18.790001 0.25
69.799004 -18.860001 0.25999999
69.859001 -18.929001 0.28
69.848999 -18.99 0.25999999
69.908997 -19.049 0.28
69.948997 -19.120001 0.28
69.988998 -19.179001 0.28
69.959 -19.24 0.28
69.778999 -19.280001 0.2
69.869003 -19.349001 0.23
70.109001 -19.429001 0.31
70.088997 -19.49 0.28
70.139 -19.549 0.28999999
70.190002 -19.610001 0.31
70.278999 -19.669001 0.34
70.278999 -19.729 0.31999999
70.308998 -19.790001 0.31999999
70.348999 -19.899 0.31999999
70.389 -19.959 0.34
70.399002 -20.009001 0.34
70.429001 -20.07 0.34
70.469002 -20.120001 0.34
68.518997 -16.83 0.029999999
68.558998 -16.919001 0.029999999
68.609001 -17.009001 0.039999999
68.698997 -17.110001 0.050000001
68.768997 -17.209 0.07
68.829002 -17.299 0.079999998
68.940002 -17.41 0.1
68.918999 -17.469 0.090000004
69 -17.559 0.1
69.039001 -17.639 0.11
69.098999 -17.729 0.12
69.149002 -17.809 0.12
69.198997 -17.889 0.14
69.228996 -17.969 0.14
69.278999 -18.049 0.14
69.329002 -18.120001 0.15000001
69.379997 -18.200001 0.16
69.418999 -18.268999 0.16
69.478996 -18.349001 0.17
69.539001 -18.429001 0.18000001
69.57 -18.5 0.2
69.609001 -18.57 0.2
69.719002 -18.649 0.23
69.690002 -18.709 0.2
69.768997 -18.790001 0.23
69.768997 -18.849001 0.20999999
69.829002 -18.919001 0.23
69.869003 -18.979 0.23
69.859001 -19.040001 0.23
69.929001 -19.110001 0.25
69.969002 -19.179001 0.25
69.869003 -19.229 0.20999999
69.789001 -19.280001 0.17
70.010002 -19.360001 0.25
70.088997 -19.429001 0.25999999
70.098999 -19.49 0.25
70.129997 -19.549 0.25
70.158997 -19.610001 0.25999999
70.25 -19.669001 0.28
70.289001 -19.729 0.28999999
70.299004 -19.790001 0.28
70.389 -19.959 0.31
70.429001 -20.018999 0.31
70.440002 -20.07 0.31
70.459 -20.129 0.31
68.518997 -16.82 -0
68.549004 -16.91 -0
68.549004 -16.979 -0
68.719002 -17.110001 0.029999999
68.760002 -17.200001 0.029999999
68.82 -17.290001 0.039999999
68.940002 -17.399 0.07
68.899002 -17.459 0.050000001
68.988998 -17.549 0.07
69.028999 -17.639 0.07
69.07 -17.719 0.079999998
69.119003 -17.799 0.090000004
69.168999 -17.879 0.090000004
69.238998 -17.969 0.1
69.299004 -18.049 0.11
69.359001 -18.129 0.14
69.389 -18.200001 0.14
69.418999 -18.268999 0.14
69.478996 -18.349001 0.14
69.549004 -18.429001 0.15000001
69.579002 -18.5 0.16
69.588997 -18.57 0.15000001
69.658997 -18.639 0.17
69.690002 -18.709 0.17
69.75 -18.780001 0.18000001
69.768997 -18.849001 0.18000001
69.808998 -18.919001 0.2
69.848999 -18.979 0.2
69.879997 -19.049 0.2
69.948997 -19.120001 0.20999999
69.959 -19.179001 0.20999999
69.808998 -19.219 0.15000001
69.988998 -19.299 0.2
70.049004 -19.370001 0.23
70.079002 -19.429001 0.23
70.149002 -19.49 0.23
70.158997 -19.549 0.23
70.179001 -19.610001 0.23
70.190002 -19.669001 0.23
70.268997 -19.729 0.25
70.418999 -20.018999 0.25999999
70.448997 -20.08 0.28
70.469002 -20.139 0.25999999
68.57 -16.91 -0.02
68.588997 -17 -0.029999999
68.668999 -17.099001 -0.0099999998
68.768997 -17.200001 -0
68.82 -17.290001 0.0099999998
68.899002 -17.389 0.029999999
68.879997 -17.450001 0.0099999998
68.978996 -17.549 0.029999999
69.028999 -17.639 0.039999999
69.079002 -17.719 0.050000001
69.119003 -17.799 0.050000001
69.190002 -17.889 0.07
69.228996 -17.969 0.07
69.299004 -18.049 0.079999998
69.338997 -18.129 0.079999998
69.369003 -18.200001 0.090000004
69.418999 -18.280001 0.1
69.5 -18.360001 0.11
69.510002 -18.429001 0.11
69.539001 -18.5 0.11
69.579002 -18.57 0.11
69.639 -18.639 0.12
69.668999 -18.709 0.14
69.728996 -18.790001 0.14
69.799004 -18.860001 0.15000001
69.808998 -18.919001 0.15000001
69.848999 -18.99 0.15000001
69.889 -19.059 0.16
69.899002 -19.120001 0.16
69.940002 -19.179001 0.16
69.829002 -19.229 0.12
70.010002 -19.309 0.17
70.058998 -19.379 0.18000001
70.058998 -19.438999 0.17
70.109001 -19.5 0.18000001
70.168999 -19.559 0.2
70.179001 -19.620001 0.2
70.198997 -19.679001 0.2
70.278999 -19.75 0.20999999
70.418999 -20.040001 0.23
70.459 -20.099001 0.23
68.629997 -17.009001 -0.029999999
68.679001 -17.099001 -0.029999999
68.760002 -17.200001 -0.02
68.82 -17.290001 -0.0099999998
68.889 -17.389 -0
68.918999 -17.469 -0
68.940002 -17.540001 -0
69.018997 -17.639 -0
69.098999 -17.729 0.029999999
69.119003 -17.799 0.029999999
69.198997 -17.889 0.029999999
69.228996 -17.969 0.039999999
69.278999 -18.049 0.039999999
69.289001 -18.120001 0.039999999
69.369003 -18.200001 0.050000001
69.418999 -18.280001 0.07
69.459 -18.360001 0.07
69.518997 -18.429001 0.079999998
69.539001 -18.5 0.079999998
69.609001 -18.58 0.090000004
69.629997 -18.649 0.090000004
69.668999 -18.719 0.090000004
69.719002 -18.790001 0.1
69.778999 -18.860001 0.11
69.789001 -18.929001 0.11
69.869003 -19 0.14
69.918999 -19.07 0.14
69.940002 -19.129 0.14
69.899002 -19.188999 0.11
69.899002 -19.25 0.11
70.039001 -19.33 0.15000001
70.049004 -19.389 0.14
70.109001 -19.450001 0.16
70.079002 -19.509001 0.14
70.149002 -19.58 0.16
70.228996 -19.639 0.17
70.198997 -19.700001 0.16
70.448997 -20.110001 0.2
68.848999 -17.309 -0.029999999
68.879997 -17.389 -0.029999999
68.918999 -17.479 -0.029999999
68.929001 -17.549 -0.029999999
68.988998 -17.639 -0.029999999
69.088997 -17.74 -0.0099999998
69.168999 -17.83 -0
69.179001 -17.899 -0
69.219002 -17.979 -0
69.278999 -18.059 0.0099999998
69.348999 -18.139 0.029999999
69.369003 -18.209 0.029999999
69.408997 -18.290001 0.029999999
69.448997 -18.370001 0.029999999
69.5 -18.438999 0.039999999
69.579002 -18.518999 0.050000001
69.579002 -18.589001 0.050000001
69.619003 -18.66 0.050000001
69.679001 -18.729 0.07
69.738998 -18.809 0.07
69.768997 -18.870001 0.079999998
69.829002 -18.950001 0.090000004
69.869003 -19.009001 0.090000004
69.899002 -19.08 0.1
69.929001 -19.139 0.1
69.838997 -19.200001 0.07
70.039001 -19.280001 0.12
70.07 -19.339001 0.12
70.088997 -19.41 0.12
70.119003 -19.469 0.12
70.198997 -19.540001 0.14
70.179001 -19.589001 0.14
70.219002 -19.66 0.14
70.228996 -19.719 0.14
70.459 -20.129 0.16
69.039001 -17.729 -0.050000001
69.139 -17.899 -0.029999999
69.198997 -17.99 -0.029999999
69.268997 -18.07 -0.02
69.289001 -18.139 -0.02
69.348999 -18.219 -0.0099999998
69.399002 -18.299 -0
69.459 -18.379 -0
69.510002 -18.459 0.0099999998
69.57 -18.530001 0.029999999
69.579002 -18.599001 0.029999999
69.658997 -18.679001 0.029999999
69.728996 -18.75 0.050000001
69.698997 -18.809 0.029999999
69.778999 -18.889 0.050000001
69.838997 -18.959 0.07
69.838997 -19.018999 0.050000001
69.899002 -19.089001 0.07
69.929001 -19.16 0.07
69.859001 -19.219 0.039999999
70 -19.290001 0.079999998
70.018997 -19.360001 0.07
70.07 -19.419001 0.079999998
70.109001 -19.49 0.090000004
70.139 -19.549 0.090000004
70.158997 -19.610001 0.090000004
70.209 -19.669001 0.1
70.219002 -19.729 0.1
69.268997 -18.149 -0.050000001
69.329002 -18.229 -0.050000001
69.379997 -18.309 -0.029999999
69.418999 -18.389 -0.029999999
69.469002 -18.459 -0.02
69.528999 -18.540001 -0.0099999998
69.579002 -18.610001 -0.0099999998
69.848999 -19.040001 0.029999999
69.879997 -19.110001 0.029999999
69.940002 -19.179001 0.039999999
69.940002 -19.24 0.029999999
70.018997 -19.309 0.050000001
70.07 -19.379 0.07
70.088997 -19.438999 0.07
70.098999 -19.5 0.050000001
70.168999 -19.57 0.07
70.219002 -19.688999 0.07
70.219002 -19.75 0.07
70.268997 -19.82 0.07
69.518997 -18.49 -0.029999999
69.549004 -18.559 -0.029999999
69.988998 -19.268999 0.029999999
70.039001 -19.339001 0.029999999
70.079002 -19.399 0.029999999
70.079002 -19.469 0.029999999
70.139 -19.530001 0.039999999
70.190002 -19.599001 0.050000001
70.198997 -19.66 0.039999999
70.209 -19.780001 0.029999999
69.588997 -18.589001 -0.050000001
70.07 -19.360001 0.0099999998
70.119003 -19.49 0.0099999998
70.179001 -19.559 0.029999999
70.209 -19.620001 0.029999999
70.238998 -19.75 0.029999999
70.25 -19.809 0.029999999
69.329002 -18.32 0.81999999
70.139 -19.610001 0.75
69.440002 -18.209 0.81
69.338997 -18.370001 0.75
69.459 -18.16 0.79000002
70.219002 -19.809 0.52999997
70.228996 -19.729 0.41999999
70.278999 -19.780001 0.41999999
70.278999 -19.889 0.38999999
70.329002 -19.839001 0.37
70.268997 -19.91 0.34
70.348999 -19.860001 0.34
70.268997 -19.929001 0.31
70.278999 -19.879 0.28
70.268997 -19.889 0.23
