# .PCD v0.7 - Point Cloud Data file format
VERSION 0.7
FIELDS x y z
SIZE 4 4 4
TYPE F F F
COUNT 1 1 1
WIDTH 202
HEIGHT 1
VIEWPOINT 0 0 0 1 0 0 0
POINTS 202
DATA ascii
70.25 -20.559 0.77999997
69.658997 -20.839001 0.81
70.289001 -20.589001 0.81999999
70.07 -20.559 0.79000002
69.768997 -20.82 0.81999999
69.969002 -20.66 0.83999997
70.168999 -20.5 0.81999999
69.558998 -20.759001 0.28999999
69.889 -20.469 0.67000002
69.588997 -20.74 0.75
69.698997 -20.649 0.75999999
69.639 -20.700001 0.73000002
69.598999 -20.74 0.73000002
69.528999 -20.790001 0.69999999
69.75 -20.610001 0.75
69.738998 -20.66 0.75
69.658997 -20.700001 0.70999998
69.579002 -20.75 0.68000001
69.518997 -20.790001 0.64999998
69.848999 -20.57 0.75999999
69.889 -20.620001 0.77999997
69.709 -20.66 0.69999999
69.679001 -20.709 0.68000001
69.629997 -20.75 0.67000002
69.539001 -20.799 0.63999999
69.889 -20.518999 0.75
69.82 -20.57 0.73000002
69.799004 -20.620001 0.69999999
69.728996 -20.66 0.67000002
69.658997 -20.709 0.63999999
69.558998 -20.759001 0.60000002
69.510002 -20.809 0.58999997
70.07 -20.438999 0.77999997
69.988998 -20.479 0.75
69.969002 -20.530001 0.75
69.879997 -20.57 0.69999999
69.75 -20.620001 0.64999998
69.690002 -20.669001 0.63999999
69.588997 -20.709 0.58999997
69.549004 -20.759001 0.56999999
69.5 -20.809 0.54000002
70.088997 -20.389 0.75999999
70.058998 -20.438999 0.75
70 -20.479 0.73000002
69.908997 -20.530001 0.69999999
69.82 -20.57 0.64999998
69.75 -20.620001 0.62
69.709 -20.669001 0.60000002
69.579002 -20.719 0.56
69.579002 -20.768999 0.54000002
69.488998 -20.82 0.5
70.07 -20.389 0.73000002
70.07 -20.438999 0.73000002
70.010002 -20.479 0.69999999
69.879997 -20.530001 0.63999999
69.829002 -20.58 0.62
69.75 -20.620001 0.58999997
69.728996 -20.669001 0.56999999
69.609001 -20.719 0.52999997
69.579002 -20.768999 0.50999999
69.469002 -20.83 0.47999999
70.088997 -20.389 0.69999999
70.058998 -20.438999 0.68000001
69.988998 -20.49 0.64999998
69.889 -20.540001 0.62
69.82 -20.58 0.58999997
69.75 -20.629 0.56
69.719002 -20.679001 0.52999997
69.588997 -20.729 0.5
69.579002 -20.790001 0.47999999
69.418999 -20.839001 0.41999999
69.190002 -21.009001 0.31
70.109001 -20.399 0.67000002
70.109001 -20.450001 0.67000002
69.948997 -20.49 0.60000002
69.889 -20.540001 0.58999997
69.82 -20.589001 0.56
69.760002 -20.639 0.52999997
69.728996 -20.688999 0.5
69.619003 -20.75 0.46000001
69.539001 -20.799 0.43000001
69.399002 -20.860001 0.37
70.179001 -20.399 0.67000002
70.079002 -20.450001 0.62
69.948997 -20.5 0.56999999
69.899002 -20.549 0.56
69.838997 -20.599001 0.52999997
69.75 -20.649 0.5
69.679001 -20.700001 0.44999999
69.609001 -20.759001 0.43000001
69.488998 -20.809 0.38999999
69.459 -20.870001 0.37
69.448997 -20.919001 0.34999999
70.168999 -20.360001 0.63999999
70.179001 -20.41 0.63999999
70.049004 -20.459 0.58999997
69.948997 -20.509001 0.54000002
69.889 -20.559 0.50999999
69.848999 -20.610001 0.5
69.728996 -20.66 0.44999999
69.679001 -20.719 0.41999999
69.57 -20.768999 0.38999999
69.539001 -20.83 0.37
69.5 -20.879 0.34
69.448997 -20.938999 0.31
69.219002 -21.009001 0.23
70.179001 -20.370001 0.60000002
70.168999 -20.419001 0.58999997
70.018997 -20.469 0.52999997
69.959 -20.518999 0.50999999
69.899002 -20.57 0.47999999
69.799004 -20.620001 0.44999999
69.719002 -20.679001 0.41999999
69.639 -20.729 0.38999999
69.609001 -20.790001 0.37
69.588997 -20.839001 0.34
69.539001 -20.899 0.31999999
70.179001 -20.370001 0.56999999
70.179001 -20.419001 0.56
70.028999 -20.469 0.50999999
69.940002 -20.518999 0.47999999
69.879997 -20.58 0.44999999
69.848999 -20.629 0.41999999
69.728996 -20.679001 0.38999999
69.679001 -20.74 0.34999999
69.658997 -20.790001 0.34
69.588997 -20.849001 0.31
69.518997 -20.91 0.28
69.308998 -20.979 0.2
70.190002 -20.379 0.54000002
70.149002 -20.429001 0.52999997
70.028999 -20.479 0.47999999
70.010002 -20.530001 0.46000001
69.918999 -20.58 0.41999999
69.829002 -20.639 0.38999999
69.75 -20.688999 0.34999999
69.760002 -20.75 0.34999999
69.709 -20.809 0.31999999
69.629997 -20.860001 0.28999999
70.209 -20.389 0.50999999
70.129997 -20.438999 0.47999999
70.028999 -20.49 0.44999999
69.988998 -20.540001 0.41999999
69.879997 -20.599001 0.37
69.869003 -20.649 0.37
69.829002 -20.709 0.34999999
69.768997 -20.759001 0.31999999
69.679001 -20.82 0.28
69.57 -20.889 0.23
70.179001 -20.389 0.47999999
70.139 -20.450001 0.44999999
70.039001 -20.5 0.41999999
69.969002 -20.549 0.38999999
69.889 -20.610001 0.34
69.899002 -20.66 0.34
69.859001 -20.719 0.31999999
69.768997 -20.780001 0.28
69.649002 -20.839001 0.23
70.198997 -20.41 0.44999999
70.119003 -20.459 0.41999999
70.039001 -20.518999 0.37
69.988998 -20.58 0.34999999
69.959 -20.629 0.34
69.940002 -20.688999 0.31999999
69.808998 -20.75 0.28
69.719002 -20.809 0.23
69.558998 -20.870001 0.17
70.209 -20.379 0.41999999
70.119003 -20.429001 0.38999999
70.049004 -20.49 0.34999999
70.088997 -20.540001 0.37
70.028999 -20.599001 0.34
69.969002 -20.66 0.31
69.879997 -20.719 0.25999999
69.789001 -20.780001 0.23
69.588997 -20.839001 0.15000001
70.190002 -20.389 0.38999999
70.158997 -20.450001 0.37
70.149002 -20.5 0.34999999
70.088997 -20.559 0.31999999
70.028999 -20.620001 0.31
69.959 -20.669001 0.28
69.829002 -20.74 0.23
69.679001 -20.799 0.16
70.209 -20.41 0.34999999
70.209 -20.459 0.34
70.168999 -20.518999 0.31999999
70.098999 -20.58 0.28999999
70.018997 -20.629 0.25999999
69.899002 -20.700001 0.20999999
69.738998 -20.759001 0.16
70.238998 -20.479 0.31999999
70.149002 -20.540001 0.28999999
70.079002 -20.599001 0.25999999
69.948997 -20.66 0.2
69.808998 -20.719 0.15000001
70.238998 -20.5 0.28999999
70.129997 -20.549 0.25
70.039001 -20.620001 0.20999999
70.198997 -20.509001 0.25
70.088997 -20.57 0.2
70.139 -20.518999 0.18000001
