# .PCD v0.7 - Point Cloud Data file format
VERSION 0.7
FIELDS x y z
SIZE 4 4 4
TYPE F F F
COUNT 1 1 1
WIDTH 139
HEIGHT 1
VIEWPOINT 0 0 0 1 0 0 0
POINTS 139
DATA ascii
67.908997 -21.839001 0.79000002
67.988998 -21.790001 0.77999997
67.948997 -21.849001 0.75999999
67.879997 -21.899 0.73000002
67.799004 -21.959 0.69999999
68.058998 -21.75 0.77999997
68.039001 -21.799 0.75999999
67.969002 -21.849001 0.73000002
67.859001 -21.91 0.69999999
67.778999 -21.979 0.64999998
68.158997 -21.700001 0.77999997
68.119003 -21.75 0.75999999
68.058998 -21.799 0.73000002
67.969002 -21.860001 0.69999999
67.889 -21.919001 0.67000002
67.768997 -21.99 0.60000002
68.228996 -21.649 0.77999997
68.149002 -21.700001 0.75
68.109001 -21.759001 0.73000002
68.058998 -21.809 0.69999999
68.010002 -21.870001 0.67000002
67.899002 -21.929001 0.62
67.799004 -22 0.56999999
68.268997 -21.599001 0.75999999
68.179001 -21.709 0.70999998
68.149002 -21.759001 0.69999999
68.079002 -21.82 0.67000002
67.978996 -21.889 0.62
67.889 -21.950001 0.58999997
67.75 -22.018999 0.52999997
68.268997 -21.66 0.73000002
68.179001 -21.719 0.68000001
68.139 -21.768999 0.64999998
68.018997 -21.839001 0.60000002
67.969002 -21.899 0.58999997
67.859001 -21.969 0.52999997
67.738998 -22.040001 0.47999999
68.278999 -21.669001 0.68000001
68.190002 -21.729 0.63999999
68.049004 -21.799 0.58999997
68 -21.860001 0.56
67.978996 -21.91 0.54000002
67.838997 -21.99 0.47999999
67.709 -22.059 0.43000001
68.329002 -21.620001 0.67000002
68.278999 -21.679001 0.63999999
68.158997 -21.75 0.58999997
68.079002 -21.809 0.56
67.978996 -21.879 0.50999999
67.929001 -21.938999 0.47999999
67.75 -22.018999 0.41999999
67.719002 -22.08 0.38999999
68.379997 -21.58 0.67000002
68.348999 -21.629 0.63999999
68.198997 -21.700001 0.58999997
68.119003 -21.759001 0.54000002
68.07 -21.83 0.50999999
68 -21.889 0.47999999
67.859001 -21.969 0.41999999
67.799004 -22.030001 0.38999999
67.760002 -22.099001 0.37
68.399002 -21.58 0.63999999
68.329002 -21.639 0.58999997
68.209 -21.709 0.54000002
68.129997 -21.780001 0.5
68.039001 -21.839001 0.46000001
67.940002 -21.91 0.41999999
67.879997 -21.979 0.38999999
67.869003 -22.040001 0.37
67.75 -22.120001 0.31999999
68.478996 -21.540001 0.62
68.379997 -21.599001 0.58999997
68.308998 -21.66 0.54000002
68.209 -21.729 0.5
68.119003 -21.799 0.46000001
68.039001 -21.870001 0.41999999
67.978996 -21.929001 0.38999999
67.959 -21.99 0.37
67.859001 -22.059 0.31999999
67.719002 -22.149 0.28
68.469002 -21.549 0.58999997
68.408997 -21.610001 0.56
68.299004 -21.679001 0.5
68.179001 -21.75 0.44999999
68.109001 -21.82 0.41999999
68.028999 -21.889 0.38999999
68.058998 -21.938999 0.37
67.948997 -22.009001 0.31999999
67.829002 -22.089001 0.28
68.448997 -21.559 0.52999997
68.389 -21.620001 0.5
68.289001 -21.688999 0.46000001
68.198997 -21.759001 0.41999999
68.149002 -21.83 0.38999999
68.129997 -21.889 0.37
68.039001 -21.959 0.31999999
67.948997 -22.030001 0.28
68.459 -21.58 0.5
68.379997 -21.639 0.46000001
68.260002 -21.719 0.40000001
68.209 -21.780001 0.38999999
68.179001 -21.839001 0.34999999
68.129997 -21.91 0.34
68.049004 -21.979 0.28999999
67.889 -22.07 0.23
68.440002 -21.599001 0.44999999
68.329002 -21.669001 0.40000001
68.308998 -21.729 0.38999999
68.289001 -21.790001 0.37
68.209 -21.860001 0.31999999
68.109001 -21.938999 0.28
67.969002 -22.018999 0.23
68.389 -21.620001 0.38999999
68.389 -21.679001 0.38999999
68.338997 -21.75 0.34999999
68.268997 -21.82 0.31
68.209 -21.879 0.28
68.088997 -21.969 0.23
68.440002 -21.58 0.38999999
68.469002 -21.629 0.38999999
68.418999 -21.700001 0.34999999
68.369003 -21.759001 0.31999999
68.289001 -21.83 0.28
68.158997 -21.919001 0.23
68.5 -21.649 0.34999999
68.399002 -21.719 0.31
68.338997 -21.790001 0.28
68.228996 -21.870001 0.23
68.469002 -21.669001 0.31
68.408997 -21.74 0.28
68.32 -21.82 0.23
68 -21.938999 0.1
68.459 -21.700001 0.25999999
68.329002 -21.790001 0.2
68.079002 -21.899 0.1
68.408997 -21.74 0.2
68.129997 -21.849001 0.090000004
68.139 -21.82 0.07
68.088997 -21.799 0.029999999
