# .PCD v0.7 - Point Cloud Data file format
VERSION 0.7
FIELDS x y z
SIZE 4 4 4
TYPE F F F
COUNT 1 1 1
WIDTH 157
HEIGHT 1
VIEWPOINT 0 0 0 1 0 0 0
POINTS 157
DATA ascii
70.510002 -19.559 0.69999999
70.518997 -19.58 0.41999999
70.518997 -19.599001 0.38999999
70.528999 -19.610001 0.37
70.539001 -19.620001 0.34
70.579002 -19.49 0.46000001
70.588997 -19.5 0.38999999
70.588997 -19.518999 0.37
70.598999 -19.540001 0.34
70.609001 -19.559 0.31999999
70.579002 -19.24 0.93000001
70.598999 -19.290001 0.92000002
70.588997 -19.280001 0.88999999
70.588997 -19.268999 0.83999997
70.619003 -19.339001 0.85000002
70.629997 -19.370001 0.83999997
70.629997 -19.370001 0.81
70.639 -19.379 0.77999997
70.629997 -19.370001 0.75
70.649002 -19.41 0.73000002
70.639 -19.389 0.67000002
70.649002 -19.399 0.64999998
70.658997 -19.429001 0.63999999
70.619003 -19.339001 0.52999997
70.658997 -19.419001 0.56
70.668999 -19.450001 0.52999997
70.639 -19.399 0.46000001
70.639 -19.389 0.41999999
70.679001 -19.49 0.46000001
70.668999 -19.450001 0.38999999
70.679001 -19.479 0.37
70.668999 -19.450001 0.31
70.668999 -19.459 0.28
70.619003 -19.110001 0.77999997
70.649002 -19.169001 0.77999997
70.658997 -19.188999 0.75
70.668999 -19.209 0.73000002
70.649002 -19.179001 0.67000002
70.698997 -19.290001 0.70999998
70.668999 -19.209 0.62
70.658997 -19.200001 0.56999999
70.668999 -19.229 0.56
70.719002 -19.339001 0.60000002
70.719002 -19.33 0.56
70.698997 -19.280001 0.47999999
70.690002 -19.259001 0.41999999
70.619003 -19.280001 1
70.629997 -19.33 1
70.408997 -19.419001 0.89999998
70.469002 -19.518999 0.89999998
70.609001 -19.219 0.98000002
70.57 -19.32 0.94999999
70.57 -19.370001 0.93000001
70.5 -19.459 0.88999999
70.609001 -19.219 0.93000001
70.57 -19.268999 0.92000002
70.579002 -19.32 0.89999998
70.549004 -19.370001 0.88999999
70.609001 -19.41 0.88999999
70.5 -19.610001 0.81999999
70.598999 -19.219 0.88999999
70.619003 -19.268999 0.88999999
70.579002 -19.32 0.87
70.469002 -19.370001 0.81999999
70.588997 -19.419001 0.85000002
70.619003 -19.219 0.87
70.639 -19.268999 0.85000002
70.649002 -19.32 0.85000002
70.549004 -19.370001 0.81
70.598999 -19.419001 0.81
70.469002 -19.518999 0.75
70.588997 -19.209 0.81
70.629997 -19.259001 0.81
70.658997 -19.309 0.81
70.588997 -19.360001 0.77999997
70.539001 -19.41 0.75
70.598999 -19.209 0.75999999
70.649002 -19.259001 0.77999997
70.579002 -19.309 0.73000002
70.558998 -19.370001 0.73000002
70.57 -19.419001 0.70999998
70.469002 -19.518999 0.67000002
70.588997 -19.219 0.70999998
70.649002 -19.268999 0.73000002
70.588997 -19.32 0.69999999
70.549004 -19.379 0.67000002
70.598999 -19.429001 0.67000002
70.57 -19.219 0.67000002
70.558998 -19.280001 0.64999998
70.609001 -19.33 0.64999998
70.588997 -19.379 0.63999999
70.619003 -19.429001 0.63999999
70.579002 -19.49 0.62
70.609001 -19.219 0.63999999
70.619003 -19.268999 0.62
70.668999 -19.33 0.63999999
70.619003 -19.379 0.60000002
70.639 -19.429001 0.60000002
70.609001 -19.219 0.58999997
70.679001 -19.268999 0.60000002
70.709 -19.33 0.60000002
70.709 -19.379 0.58999997
70.658997 -19.429001 0.56
70.679001 -19.49 0.56
70.668999 -19.229 0.56999999
70.679001 -19.280001 0.56
70.679001 -19.339001 0.54000002
70.679001 -19.389 0.54000002
70.690002 -19.438999 0.52999997
70.75 -19.49 0.52999997
70.528999 -19.559 0.44999999
70.639 -19.229 0.52999997
70.679001 -19.290001 0.52999997
70.690002 -19.339001 0.50999999
70.698997 -19.389 0.5
70.690002 -19.450001 0.5
70.619003 -19.509001 0.44999999
70.510002 -19.57 0.41999999
70.558998 -19.620001 0.41999999
70.649002 -19.229 0.47999999
70.668999 -19.290001 0.47999999
70.690002 -19.339001 0.47999999
70.698997 -19.389 0.46000001
70.690002 -19.450001 0.44999999
70.629997 -19.509001 0.41999999
70.598999 -19.57 0.40000001
70.598999 -19.620001 0.38999999
70.690002 -19.24 0.46000001
70.679001 -19.290001 0.44999999
70.690002 -19.349001 0.43000001
70.698997 -19.41 0.41999999
70.679001 -19.459 0.40000001
70.679001 -19.518999 0.38999999
70.619003 -19.58 0.37
70.579002 -19.639 0.34
70.478996 -19.709 0.28999999
70.649002 -19.309 0.38999999
70.698997 -19.370001 0.40000001
70.698997 -19.419001 0.38999999
70.690002 -19.479 0.37
70.690002 -19.540001 0.37
70.588997 -19.599001 0.31
70.679001 -19.32 0.37
70.709 -19.379 0.37
70.698997 -19.429001 0.34999999
70.639 -19.5 0.31999999
70.619003 -19.559 0.31
70.690002 -19.33 0.34
70.690002 -19.389 0.31999999
70.679001 -19.450001 0.31
70.668999 -19.509001 0.28999999
70.668999 -19.57 0.28
70.698997 -19.339001 0.28999999
70.668999 -19.399 0.28
70.668999 -19.459 0.25999999
70.668999 -19.299 0.25
70.679001 -19.360001 0.25
